ncols         338
nrows         32
xllcorner     -86.7835518261
yllcorner     39.2770630684
cellsize      9.2592593e-005
NODATA_value  -9999
202.2997 202.4524 201.8754 200.9155 200.5889 200.6385 200.6951 196.6089 189.4305 187.5717 186.2224 184.4133 183.7846 184.2181 185.0394 185.8654 186.3762 187.2445 187.489 187.75 188.0318 188.3645 188.7088 188.9674 189.5972 189.1205 189.5614 188.8703 188.6569 188.875 188.9928 189.1995 189.3056 189.4697 188.9957 188.683 188.7377 188.7785 188.2168 184.327 183.7335 183.5796 183.0268 182.5048 180.8669 180.1627 179.8493 179.8052 179.9712 180.2355 181.1733 181.5927 183.6748 184.971 185.655 186.0209 186.4917 186.8247 186.8707 186.9568 186.9378 186.9112 186.8595 187.2789 186.9852 186.8876 186.7841 186.5315 186.9789 187.4681 187.5355 185.4035 184.1831 184.0246 181.5124 180.0712 180.3553 179.6973 178.4418 177.429 176.0993 173.6947 168.786 168.2567 163.3918 161.89 161.89 161.89 161.89 161.89 161.89 162.0133 163.2906 165.4794 165.9044 166.3326 166.4137 166.5234 166.3216 166.4126 165.089 164.7885 164.8992 165.0181 165.001 164.8924 165.0464 165.4651 165.0264 165.4174 165.3389 165.3563 165.3911 165.4171 165.3114 164.9212 165.6978 166.6925 166.616 165.8903 165.1117 165.5006 165.3578 165.6912 165.8688 165.9397 166.029 165.9878 165.7721 165.5973 165.6215 165.2588 165.1438 165.4275 165.1354 165.1721 165.1622 165.3621 165.3898 165.5999 165.4987 165.5601 165.5958 165.7658 165.8289 165.8049 165.9571 165.821 165.7735 165.8308 165.6351 165.8379 165.9097 166.171 165.7373 166.1258 166.6293 166.6973 166.4447 166.0403 165.6296 165.4991 165.6365 165.6681 165.6055 165.5508 165.8336 166.0682 166.2071 166.3568 166.2581 165.5948 165.3017 165.2349 165.0861 165.1214 164.9023 164.8694 164.6774 164.7876 164.7312 164.557 164.5107 164.2185 164.41 164.2663 164.3005 164.0755 163.9806 164.1592 164.1381 164.1396 164.1046 164.1171 164.2803 164.2332 164.1621 164.3172 164.4348 164.5919 164.6987 164.8282 164.767 164.7813 164.8759 164.8456 164.7673 164.7024 164.9618 165.0146 165.0037 165.1437 165.2521 165.236 165.3373 165.5446 165.5286 165.6032 165.8762 165.8475 166.0862 165.7774 165.9061 165.7531 165.8114 165.6984 165.1808 165.1994 164.5262 162.6611 162.2415 162.1847 162.19 162.19 162.19 162.19 162.19 162.19 162.19 162.19 162.2 162.2 162.2 162.2 162.2 162.21 162.21 162.21 162.21 162.21 162.21 162.21 162.2137 162.22 162.22 162.22 162.3718 163.5775 165.0034 165.5934 165.1396 163.0046 164.1942 165.6133 165.6172 165.5502 165.2619 165.1278 164.8866 164.6835 164.6855 164.8299 164.8112 164.6629 164.5669 164.4764 164.4297 164.3296 164.3472 164.4783 164.4254 164.3324 164.4183 164.3344 164.3851 164.3934 164.4781 164.472 164.5049 164.6015 164.6594 164.7296 164.7989 164.9378 164.705 164.5836 164.4843 164.7617 164.7065 164.6448 164.7499 164.8226 164.8305 164.7994 164.8286 165.1783 165.2039 164.9107 164.6379 164.7133 164.7502 164.9682 165.0148 165.0814 165.2238 165.3897 165.4718 165.4735 165.5638 165.6313 165.686 165.6327 165.6896 165.6382 165.6598 165.6147 165.5825 165.4912 165.3833 165.3485 165.3314 165.5047 165.5405 165.5333 165.569 165.557 165.8598 166.0512
203.1377 203.2641 202.9862 202.299 201.5862 201.3409 201.6203 197.4769 189.6453 187.4838 186.1074 184.4762 183.9923 184.3908 185.294 186.5219 186.8795 187.0454 187.0589 187.1906 187.3344 187.5448 187.7589 187.9833 188.1458 188.1964 188.4963 188.2869 188.0563 188.1124 188.1749 188.2548 188.3145 188.2514 187.9661 187.738 187.3896 187.0017 186.5423 183.795 183.87 183.9278 183.9737 184.1719 184.4172 184.1431 184.0681 184.181 184.2314 184.285 185.1601 184.7448 185.2278 185.3329 185.7314 186.01 186.3679 186.5711 186.898 187.0364 186.8406 186.9024 187.1924 187.2707 186.8358 186.4369 187.1234 186.5447 186.3465 186.5611 186.8932 184.3792 184.3206 183.595 180.8038 180.7173 180.9584 178.6799 178.0066 177.2294 175.9745 172.4073 168.7552 168.0892 163.2955 161.89 161.89 161.89 161.89 161.89 161.89 161.89 163.0974 165.9889 166.0415 166.4312 166.5721 166.408 166.4199 166.06 164.951 164.778 164.8577 164.916 164.8681 164.9187 165.128 165.3876 165.159 165.4993 165.5025 165.4753 165.4351 165.3122 165.1143 165.3013 165.5428 166.504 166.3365 164.8669 165.3923 165.1728 165.1517 165.6571 165.8599 165.9351 165.9297 165.8001 165.4229 165.6213 165.5056 165.3074 164.8521 164.9883 165.3496 165.3508 165.2589 165.4893 165.6102 165.6349 165.5347 165.475 165.9864 165.9799 165.867 165.5592 165.8967 166.0863 165.717 165.8403 165.6139 166.1241 166.4226 166.5781 166.7942 166.6922 167.0563 166.7185 166.4003 166.5982 166.4197 166.6511 167.0691 167.0562 167.3469 167.1924 167.1265 167.0168 167.1339 167.2806 167.3042 167.1514 167.0997 166.9588 167.033 167.1348 167.1124 166.9673 167.1442 167.3307 167.0483 166.7042 166.5739 165.8748 165.5254 165.0931 164.8896 164.7686 164.5778 164.6301 164.5412 164.3262 164.2001 164.1768 164.1591 164.1365 164.0446 164.0631 164.1016 164.1922 164.279 164.4641 164.422 164.4611 164.5162 164.5057 164.3183 164.3792 164.4662 164.6214 164.7134 164.8439 164.9072 164.9065 164.9284 165.0419 165.1031 165.2217 165.1089 165.204 165.1969 165.2435 165.2948 165.48 165.5302 165.6714 165.6079 165.703 165.8743 165.8307 165.4329 165.382 165.507 164.8073 163.0997 162.2574 162.19 162.19 162.19 162.1915 162.2 162.2 162.2 162.2 162.2 162.2 162.21 162.21 162.21 162.21 162.21 162.21 162.22 162.22 162.22 162.22 162.22 162.22 162.23 162.2647 162.4791 163.1074 165.36 165.7149 165.5982 165.4684 165.5069 165.3087 164.9856 164.96 164.844 164.724 164.6092 164.3764 164.3893 164.387 164.3789 164.3657 164.4147 164.5836 164.4656 164.3005 164.368 164.4372 164.4339 164.439 164.4714 164.4826 164.4799 164.4054 164.4022 164.5142 164.4403 164.3464 164.3789 164.276 164.3562 164.4859 164.4327 164.4158 164.3976 164.5119 164.7337 165.0013 164.8849 164.5143 164.7778 164.7097 164.444 164.8084 165.8912 166.1111 165.7561 165.6863 165.7377 165.8446 165.8764 165.7787 165.7174 165.674 165.6145 165.6507 165.6459 165.6264 165.7168 165.6932 165.6919 165.6489 165.5132 165.4815 165.4486 165.5229 165.5854 165.6327 165.7807 166.0854 166.5348 166.3542
204.0209 204.124 204.1831 204.1473 203.8111 203.2195 202.732 199.0279 192.0206 188.0869 185.9166 184.289 183.7699 184.498 185.5404 186.6694 187.3751 187.032 186.7438 186.7444 186.8374 186.9401 187.072 187.1919 187.6801 187.0746 187.3176 187.5635 187.1438 187.1081 187.1148 187.0561 187.1471 187.0024 186.8596 186.8439 186.3251 185.8339 185.3123 183.7324 183.9227 183.9935 184.2298 184.2992 184.5213 186.616 187.1797 185.679 185.234 184.4883 185.1927 184.8392 185.3179 185.5068 185.8949 186.1231 186.4551 186.8993 187.1196 187.2073 187.366 187.3039 187.519 187.5461 187.3777 187.1195 186.913 186.496 186.1752 186.6899 185.7539 184.4762 184.3163 182.8351 180.8923 181.3436 181.2048 177.7822 177.5437 177.124 175.009 170.5168 168.9779 167.9779 163.63 161.89 161.89 161.89 161.89 161.89 161.89 161.89 163.2409 166.0375 166.188 166.476 166.3725 166.3052 166.1113 165.2638 164.9193 164.8343 164.8867 164.8836 164.8754 165.0031 165.2067 165.2309 165.2703 165.1779 165.4815 165.5473 165.3077 165.3139 165.0216 165.0804 165.1907 166.0683 167.3074 165.6127 165.254 165.1729 165.1376 165.557 165.4991 165.8845 165.1967 164.3983 165.3359 164.9793 165.2223 164.9965 164.5961 164.7411 165.4843 165.7265 164.3356 165.0658 165.087 165.4219 165.4763 165.8752 165.7826 165.8395 165.8261 165.5941 165.6741 165.6187 165.5071 165.6961 165.6217 165.5308 165.5656 165.5823 165.5352 165.6578 165.6775 165.9344 165.9984 166.0222 166.0582 166.2355 166.3799 166.6898 166.9189 166.8215 166.8067 166.8069 166.9683 167.0526 167.0895 166.9043 166.8404 166.7342 166.6995 166.7217 166.8486 166.9802 167.0863 167.1317 167.1325 167.1976 167.3168 167.3261 167.2552 167.2428 167.3242 166.7139 166.3115 166.2263 165.2343 165.2322 164.7924 164.6609 164.6374 164.3417 164.1932 164.2714 164.1572 163.991 163.9507 163.9201 164.0731 164.118 164.142 164.1722 164.1103 164.1214 164.2919 164.3665 164.4606 164.6597 164.6337 164.6342 164.7241 164.7816 164.8795 164.8717 164.933 164.8683 164.6626 164.7566 164.8516 164.963 165.0933 165.1194 165.1539 165.2939 165.4303 165.7247 165.4964 165.4696 165.4284 165.4328 165.7767 165.9184 164.9018 162.3224 162.19 162.2 162.2 162.2 162.2 162.2 162.2 162.2 162.21 162.21 162.21 162.21 162.21 162.21 162.22 162.22 162.22 162.22 162.22 162.23 162.23 162.23 162.23 162.23 162.2385 163.1595 164.7293 165.1836 165.4603 165.5607 165.5217 165.379 165.178 165.0073 165.0498 164.9359 164.6637 164.5475 164.4265 164.4884 164.6681 164.6097 164.4725 164.4465 164.6127 164.5232 164.5602 164.5697 164.646 164.6564 164.5495 164.4867 164.4725 164.3632 164.2655 164.2822 164.308 164.6479 164.9626 165.0695 164.8868 164.6111 164.3742 164.5238 164.3762 164.4091 164.4156 164.675 164.4241 164.7468 166.2608 166.3028 166.1438 166.4981 166.1282 166.0182 165.9758 166.0005 165.9118 165.8334 165.7822 165.7465 165.67 165.7273 165.7673 165.7383 165.794 165.8217 165.8285 165.8279 165.6853 165.6092 165.5632 165.6139 165.7433 165.8821 166.1805 166.8198 166.3407 166.4696
204.5216 204.6638 204.8786 205.0778 204.916 204.4874 203.5648 200.3967 194.4642 188.6746 185.6347 184.3711 183.9872 184.6444 185.5014 186.8845 187.5547 187.1594 186.6635 186.4995 186.5022 186.5566 186.6386 186.9436 186.8606 186.6887 186.636 186.6931 186.4158 186.332 186.2536 185.8805 185.655 185.452 185.3512 185.7405 185.7264 185.4837 185.2178 184.7307 184.8755 185.0928 184.6624 184.6178 184.5756 184.4001 184.3629 184.4203 184.559 184.7867 185.0841 185.3884 185.6411 185.859 186.0111 186.0608 186.4309 186.9311 187.2251 187.1016 187.0408 186.9811 187.0623 187.1681 187.209 186.874 186.5422 186.4153 185.9424 185.5463 184.824 184.4768 183.9655 182.2372 181.6569 181.8472 180.142 177.5396 177.2705 176.6461 174.2458 169.6477 169.3313 167.511 164.0178 161.89 161.89 161.89 161.89 161.89 161.89 161.89 162.5086 166.1507 166.257 166.3602 166.0877 166.0549 165.9144 165.0115 164.857 164.6989 164.8036 164.9434 164.9224 164.9652 165.094 165.2588 165.132 164.9775 164.9 164.8278 164.9076 164.8155 164.7974 164.8696 165.0976 165.4428 165.9108 165.8014 166.1503 167.0167 167.4028 166.9634 166.3679 165.9209 165.7297 165.5904 165.5336 165.3561 166.2164 165.8364 167.1356 166.2972 165.7266 165.1257 164.9136 164.7548 164.8666 164.8813 164.9845 165.102 165.2153 165.3055 165.3715 165.1788 165.1574 165.0992 165.0025 165.0839 165.1806 165.1923 165.1696 165.2943 165.505 165.5687 165.5488 165.7413 165.9034 165.9438 166.1457 166.2942 166.5787 166.8342 166.9279 166.8094 166.8016 166.78 166.8686 166.979 167.0436 166.9145 166.8577 166.6881 166.6332 166.6593 166.7795 166.918 167.0238 167.0002 166.9687 166.9671 166.9785 166.8828 166.8738 166.9525 166.9933 167.0304 166.9602 166.9772 167.0284 167.0872 167.1149 167.192 167.0941 167.0386 166.915 166.4651 165.886 165.4683 165.0506 164.9998 164.5401 164.3023 164.2486 164.2524 164.1109 164.1139 164.2833 164.2589 164.3433 164.4391 164.4174 164.4587 164.5036 164.4153 164.4728 164.5718 164.4457 164.5083 164.4252 164.5429 164.583 164.6233 164.7377 164.7742 164.8166 164.8807 164.973 165.1636 165.3002 165.237 165.2611 165.3043 165.4153 165.3991 165.6183 165.6311 165.4654 162.803 162.2979 162.2 162.2 162.2 162.2 162.2 162.21 162.21 162.21 162.21 162.21 162.21 162.2152 162.22 162.22 162.22 162.22 162.23 162.23 162.23 162.23 162.23 162.23 162.23 162.23 162.7647 163.9242 165.2086 165.634 165.9093 165.7304 165.7611 165.6458 165.5277 165.1592 165.0137 164.8072 165.0125 164.7979 164.9427 164.773 164.6268 164.7273 164.7095 164.6877 164.6685 164.6898 164.6654 164.6142 164.5398 164.5583 164.7505 164.7663 164.9218 165.073 165.2266 164.9755 164.6882 164.4083 164.0544 164.055 163.8383 163.9721 165.0572 165.07 165.7982 165.7089 165.7955 165.8703 166.0451 166.03 166.2435 166.0739 165.9797 165.9395 165.968 165.9155 165.9345 165.9404 165.9561 165.9201 165.9326 165.9456 165.9088 165.9173 165.9165 165.9506 165.9638 165.8455 165.7707 165.7646 165.8812 166.0524 166.2555 166.4426 166.7766 166.7014 166.5887
204.7199 204.9873 205.3234 205.567 205.3379 204.7415 203.4107 200.5862 195.5444 189.2407 185.8922 184.6857 184.1481 184.4211 185.3 186.8839 187.5678 187.2348 186.858 186.5221 186.3694 186.3284 186.4807 186.4664 186.3279 186.2854 186.1478 185.9506 185.8427 185.7338 185.5711 185.2687 185.0982 184.9012 184.7727 185.0714 185.1171 185.2647 185.0656 184.6306 184.8614 184.9762 184.8704 184.7803 184.7924 184.5768 184.578 184.6582 184.8356 185.1591 185.256 185.5736 185.7031 186.0287 186.428 186.7369 187.007 187.1658 187.38 187.189 187.4006 188.9509 190.6294 187.8515 186.8796 186.6272 186.2803 186.1699 185.9405 185.1842 184.6762 184.2453 183.3055 181.9999 182.2003 182.2384 179.2902 177.2663 176.8831 176.0073 173.5823 169.3392 169.0831 166.5397 164.6024 161.921 161.89 161.89 161.89 161.89 161.89 161.89 162.083 165.484 166.0013 166.2715 166.0751 166.0165 165.6615 164.9444 164.8105 164.8004 164.9057 164.9726 164.9976 164.9688 165.0556 165.1146 165.0155 164.8977 164.7928 164.7357 164.8 164.7952 164.8365 164.9242 165.0471 165.1335 165.4885 165.0118 165.0579 165.0241 165.1441 165.2821 165.5647 165.7162 166.0156 166.1622 166.1227 165.7866 165.2883 164.7307 164.4273 164.1168 164.3468 164.647 164.6722 164.7348 164.896 165.0336 164.9016 165.2263 165.3901 165.5278 165.3757 165.2469 165.1902 165.0311 165.019 165.0932 165.2694 165.3481 165.3978 165.7402 165.993 166.0752 166.0819 166.0347 166.061 166.2755 166.3921 166.4743 166.629 166.8045 166.9891 166.7653 166.7099 166.736 166.8021 166.8896 166.9281 166.9139 166.8798 166.7038 166.5761 166.5607 166.6508 166.7748 166.9437 166.9447 166.876 166.941 166.8653 166.8761 166.8221 166.8013 166.9321 166.9328 166.8809 166.7776 166.6937 166.6021 166.518 166.4173 166.328 166.2601 166.2244 166.2752 166.3708 166.5092 166.6729 166.8053 166.9049 166.9012 166.889 166.8561 166.6995 166.568 166.369 166.1251 165.6637 165.583 165.2403 165.1946 165.0775 164.9641 164.9407 164.9261 164.7401 164.7141 164.5901 164.5094 164.4415 164.6205 164.6446 164.6709 164.6457 164.6775 164.8145 164.8961 165.038 165.0484 165.1649 165.3235 165.1467 165.114 165.3753 165.4569 165.3736 165.8158 165.6644 164.1854 163.3891 162.2 162.2 162.2043 162.21 162.21 162.21 162.21 162.21 162.21 162.21 162.21 162.22 162.22 162.23 162.23 162.23 162.23 162.23 162.23 162.23 162.23 162.23 162.24 162.24 162.2532 163.1154 165.0493 166.0385 166.0917 165.9541 165.9812 165.8232 165.4622 165.3753 165.3598 165.2389 165.2192 165.1759 165.1476 165.0064 164.9224 164.84 164.8415 164.8815 164.6914 164.9611 164.9164 164.981 165.0345 165.0077 164.9106 164.6394 164.3886 164.4033 164.4084 164.6806 164.8875 165.5382 166.0051 165.9135 166.3907 166.3423 166.0739 165.8254 166.1882 165.8829 165.3022 165.4136 165.5446 166.0803 165.8517 165.8216 165.8296 165.8707 165.8364 165.8669 165.9102 165.9137 165.9437 165.9439 166.0048 166.0953 166.146 166.0891 166.0598 165.9498 165.9502 166.0177 166.1096 166.3231 166.4221 166.6452 166.6994 166.7612 166.823
204.775 205.3419 205.7477 205.6502 205.2798 204.639 203.208 200.6253 196.1966 190.0592 186.3481 184.7746 184.0965 184.4501 185.3427 186.9625 187.5933 187.2903 186.9679 186.6613 186.4059 186.3905 186.3232 186.2357 186.0948 185.9224 185.743 185.5464 185.3379 185.3171 185.1706 184.9036 184.7834 184.5649 184.4304 184.7427 184.8743 184.9268 184.8539 185.0135 184.8927 184.9297 184.8292 184.8622 184.9566 184.8152 184.8501 184.8885 185.2107 185.8284 186.3864 186.7926 186.9591 187.141 187.3076 187.2554 187.1763 187.2307 187.4192 187.1847 189.703 192.748 195.6093 193.4307 190.286 186.6374 185.6309 185.417 185.1704 184.4913 184.2755 184.1083 182.7961 182.4165 182.6722 181.426 179.2991 177.2512 176.4201 174.9571 173.0596 169.0189 168.976 166.0381 164.7451 161.89 161.89 161.89 161.89 161.89 161.89 161.89 161.89 165.2449 166.0596 166.2926 165.9796 165.9829 165.4702 164.9082 164.8069 164.8479 164.9196 165.0583 165.057 165.127 165.1127 165.0614 164.9881 164.8324 164.7672 164.8104 164.8281 164.7508 164.9118 164.9888 165.127 165.1969 165.5282 165.2409 165.1648 164.9974 165.0939 165.1736 165.123 165.1462 165.0329 164.7876 164.4908 164.3409 164.365 164.3545 164.29 164.341 164.6515 164.483 164.6518 164.9538 165.0455 165.2802 165.3939 165.4734 165.4909 165.4798 165.4391 165.3842 165.17 165.2144 165.1186 165.2507 165.4709 165.551 165.9986 166.2394 166.4236 166.2891 166.116 166.0918 166.2356 166.3847 166.4513 166.5151 166.716 166.8911 166.8867 166.7001 166.5832 166.6596 166.7576 166.921 166.927 166.9534 166.8286 166.7054 166.5395 166.5276 166.6282 166.7078 166.865 166.8389 166.9054 166.935 166.9015 166.7891 166.8101 166.8438 166.9411 166.9505 166.8716 166.8469 166.7964 166.7316 166.6277 166.5513 166.4416 166.345 166.1628 166.0682 166.0181 166.0065 166.03 166.048 166.0305 165.9155 165.9435 165.8793 165.7984 165.7935 165.885 166.0328 166.0395 166.129 166.3359 166.5489 166.7088 166.798 166.7688 166.7669 166.8035 166.8316 166.8368 166.8557 166.8507 166.815 166.7965 166.6739 166.6892 166.8072 166.9366 166.3889 166.6512 166.3341 165.9511 166.0267 165.8371 165.1871 165.1885 165.1421 164.9524 165.1476 165.1632 164.8176 164.9519 165.459 164.9605 162.4268 162.21 162.21 162.21 162.21 162.21 162.21 162.21 162.2138 162.22 162.22 162.22 162.2255 162.23 162.23 162.23 162.23 162.23 162.23 162.23 162.24 162.24 162.24 162.24 162.24 162.24 162.719 164.5482 165.7934 165.8483 165.8682 166.0631 166.0163 165.9788 165.8704 165.8419 165.7643 165.6258 165.5299 165.3999 165.6247 165.5469 165.5486 165.4055 165.0849 164.9101 164.7989 164.5939 164.4697 164.5247 164.7391 164.7618 165.1491 165.1071 165.2153 165.2139 165.5741 165.6464 165.5379 165.8225 165.7208 165.971 165.8605 165.6309 165.3137 164.9582 164.9455 165.2155 165.3057 165.9238 165.7097 165.635 165.6917 165.7172 165.6881 165.6936 165.7896 165.8751 166.0038 166.1398 166.2975 166.3501 166.3269 166.2834 166.3002 166.3392 166.3933 166.6292 166.8213 166.5528 166.6898 166.7722 167.1158
204.9432 205.4106 205.7824 205.7536 205.3106 204.5626 203.1678 200.7968 196.4859 190.3374 187.3829 186.0295 184.868 185.1198 186.2995 187.6316 187.5809 187.1705 186.8585 186.5889 186.443 186.2247 186.0729 185.9993 185.8891 185.723 185.5294 185.315 185.0617 185.0112 185.0394 184.7807 184.5515 184.4028 184.282 184.6191 184.7967 184.8619 184.8029 185.1343 185.0902 184.7065 184.6628 184.7728 185.3065 185.6278 186.1902 186.2523 186.567 186.807 186.8982 187.1958 187.287 187.5151 187.609 187.5899 187.3387 187.7165 188.0715 189.1691 193.49 196.6276 198.57 194.2451 190.9846 189.664 186.2613 184.9003 184.3819 184.0121 183.8673 183.4105 182.7324 182.8867 182.9261 180.6308 178.5549 177.1826 175.5215 174.1022 172.7031 168.9659 168.8613 165.6802 164.5844 161.8839 161.89 161.89 161.89 161.89 161.89 161.89 161.89 163.9768 166.0776 166.2461 165.9314 165.8704 165.4274 164.9944 164.8923 164.8506 165.0271 165.093 165.0955 165.1145 165.1008 165.0332 164.8828 164.8765 164.7778 164.7592 164.8382 164.7892 164.8964 165.0828 165.2535 165.2346 165.4986 165.4524 165.2578 165.2483 165.2079 165.2705 165.216 165.1314 165.0474 164.9294 164.5966 164.5044 164.5925 164.5947 164.4593 164.4539 164.3123 164.494 164.8356 165.1272 165.1381 165.084 165.196 165.3672 165.428 165.4542 165.4353 165.1835 165.104 165.1435 165.1779 165.4125 165.631 165.9675 166.396 166.4613 166.4066 166.158 166.087 166.1346 166.2434 166.3467 166.3993 166.5257 166.6727 166.7458 166.7457 166.6317 166.5979 166.6678 166.7343 166.7265 166.8546 166.8625 166.7787 166.666 166.5376 166.5342 166.5542 166.5888 166.7247 166.7316 166.762 166.8487 166.779 166.7513 166.7311 166.7884 166.8602 166.8654 166.8381 166.8487 166.7641 166.8041 166.6946 166.5538 166.3698 166.2237 166.2344 166.0732 166.0967 166.0591 166.1204 166.0743 165.9233 165.8498 165.8995 165.805 165.7206 165.7554 165.7658 165.6834 165.6776 165.5869 165.5884 165.5769 165.5964 165.5589 165.4101 165.3371 165.2823 165.3409 165.3957 165.5844 165.6106 165.6861 165.6398 165.6075 165.6589 166.0518 166.6013 166.6045 168.4374 169.6971 168.6564 167.2854 167.3798 166.68 166.3707 166.1825 166.1214 166.17 166.3677 166.358 165.6917 164.9878 164.9352 165.2276 165.5847 164.4328 162.3769 162.21 162.21 162.21 162.21 162.22 162.22 162.22 162.22 162.22 162.22 162.2218 162.23 162.23 162.23 162.23 162.23 162.24 162.24 162.24 162.24 162.24 162.24 162.24 162.24 162.2602 163.2666 165.0694 166.0319 166.1017 166.3162 166.2929 166.2923 166.2557 166.0899 165.7688 165.6055 165.6088 165.6143 165.2608 164.5259 164.2078 164.2338 164.4403 164.8103 164.7403 164.5309 164.5078 164.6823 164.6877 164.6467 164.7983 164.9064 165.0246 165.1907 165.3745 165.3769 165.42 165.4859 165.4833 165.6576 165.7184 164.4419 164.149 165.0351 165.1583 165.9194 166.2292 166.1852 166.0311 165.945 165.7756 165.757 165.8958 166.4053 166.2273 166.3488 166.5715 166.6665 166.7414 166.6293 166.432 166.7801 166.8834 166.7805 166.9217 166.5603 166.6585 166.9729 166.9578
204.3416 204.9095 205.3207 205.3137 204.9139 204.2264 203.0402 201.2102 197.1406 190.4532 188.2343 188.118 187.304 187.2025 187.7883 188.104 187.1513 186.8608 186.6514 186.5639 186.3954 186.1935 186 185.8534 185.7002 185.5109 185.3831 185.2398 185.0159 184.9317 184.8639 184.6696 184.5077 184.399 184.3978 184.6326 184.7111 184.878 184.9058 185.363 185.2762 184.8999 185.3373 186.0797 186.6763 186.8879 186.9232 186.745 187.2147 187.2026 187.3898 187.4757 187.6602 187.7513 187.854 188.068 187.9625 188.7396 189.0129 193.0856 196.2783 199.1509 197.0304 195.8371 194.5009 191.3261 188.7987 185.7936 184.2925 183.9692 183.7377 183.2515 183.1171 183.2559 182.0898 179.718 178.2166 176.7726 174.6982 173.6313 171.3525 168.7749 168.1775 165.2724 164.431 161.88 161.88 161.88 161.88 161.88 161.88 161.88 161.88 163.864 166.0908 166.2162 166.1353 165.8186 165.4855 165.2068 165.113 165.0969 165.1585 165.2225 165.2958 165.2106 165.1161 165.128 165.0147 164.9656 164.9529 164.9162 164.9657 164.9362 165.1058 165.2119 165.2817 165.2651 165.3985 165.3969 165.4239 165.3652 165.3179 165.2176 165.2084 165.1454 165.0931 164.9473 164.6474 164.6288 164.6446 164.8181 164.7618 164.4109 164.438 164.8476 165.1827 165.4217 165.3094 165.2646 165.3839 165.4767 165.4446 165.3498 165.3934 165.1497 165.1687 165.3332 165.4601 165.6215 166.0237 166.4581 166.4718 166.4464 166.2595 166.0783 166.063 166.183 166.3324 166.3925 166.447 166.4749 166.6528 166.7338 166.7484 166.7088 166.5899 166.6083 166.6027 166.715 166.7489 166.735 166.7166 166.6092 166.5302 166.5384 166.5371 166.5624 166.7185 166.6979 166.7274 166.8863 166.8089 166.6939 166.6397 166.7415 166.8298 166.7977 166.7866 166.7984 166.7707 166.7863 166.6099 166.4538 166.2408 166.2444 166.1797 166.0613 166.0715 166.1246 166.1157 166.1794 166.008 165.8918 165.9457 165.9727 165.788 165.775 165.8341 165.7611 165.6014 165.5922 165.619 165.6927 165.7438 165.793 165.6476 165.328 165.2103 165.1871 165.1904 165.4015 165.5123 165.4892 165.4574 165.4487 165.4855 165.4843 165.9557 165.7717 168.0279 169.4056 169.3824 167.6764 168.1715 167.4881 166.6083 166.2782 166.2731 166.3306 166.2786 166.1736 166.2811 166.4052 166.2815 165.8344 165.3806 165.2357 165.5018 165.5926 164.1488 162.2898 162.2144 162.22 162.22 162.22 162.22 162.22 162.22 162.2297 162.23 162.23 162.23 162.23 162.2333 162.24 162.24 162.24 162.24 162.24 162.24 162.24 162.24 162.25 162.25 162.25 162.2817 163.246 164.3476 165.8647 166.3484 166.3037 166.3902 166.2428 166.0072 165.8663 165.7854 164.8248 163.8201 163.8981 164.6417 165.0131 165.3706 165.4377 165.441 165.1451 165.0655 165.0696 165.2398 165.3449 165.825 166.3209 165.6724 166.2301 166.2533 166.3719 166.3144 166.1865 165.9452 166.0233 165.9166 165.9162 166.1342 166.2097 166.1259 166.559 166.7865 166.6095 165.9758 165.4689 165.5577 166.5227 166.7048 166.869 166.8905 166.9695 166.7596 166.8392 166.9325 166.8821 166.6268 166.7632 166.8431 166.6036 166.5724 166.6457 166.7545 166.8346
203.362 204.2599 204.6489 204.7429 204.4754 203.697 202.6073 201.2557 197.4608 190.3978 187.9954 188.4706 188.4729 188.4138 188.2554 188.0343 187.001 186.7481 186.5621 186.4373 186.2905 186.1109 185.9411 185.7966 185.6357 185.501 185.3629 185.2482 185.1223 184.9304 184.7709 184.6532 184.602 184.5567 184.5478 184.7121 184.8939 185.11 185.2479 186.0225 186.1433 186.3883 186.7526 186.8062 186.9891 187.1144 187.1915 187.1068 187.1887 187.3949 187.4368 187.6419 187.7281 188.0632 188.124 188.0177 188.2628 190.8585 190.5211 194.0739 197.7557 197.9425 197.5126 197.3378 197.0213 194.4617 190.3009 187.2987 184.9223 183.8618 183.5883 183.4343 183.5142 183.4095 179.5557 177.8617 176.3952 175.2802 173.8879 172.7097 170.0186 168.7675 166.8183 165.3922 163.3666 161.88 161.88 161.88 161.88 161.88 161.88 161.88 161.88 164.2769 166.0125 166.0986 166.1259 165.8462 165.6313 165.4921 165.3702 165.3572 165.3736 165.3912 165.4339 165.4553 165.3155 165.2564 165.1238 165.1088 165.0553 165.0597 165.1028 165.2192 165.2666 165.3613 165.3334 165.3186 165.3752 165.4353 165.4396 165.3713 165.2507 165.1964 165.2069 165.2484 165.1216 165.0303 164.8007 164.7576 164.7477 164.8384 164.7874 164.5505 164.6551 165.0393 165.3257 165.5357 165.4543 165.3829 165.452 165.4321 165.3978 165.3298 165.2302 165.2228 165.3933 165.4996 165.5672 165.8505 166.2463 166.4487 166.4921 166.3458 166.1589 166.0113 166.0687 166.1516 166.3113 166.4055 166.4952 166.5382 166.6062 166.6853 166.7377 166.6667 166.5792 166.4929 166.5786 166.6116 166.7189 166.5999 166.6396 166.4613 166.5975 166.5976 166.5943 166.6457 166.7416 166.7138 166.6939 166.745 166.7237 166.599 166.5201 166.6586 166.7232 166.7239 166.79 166.7778 166.6865 166.6576 166.5303 166.3326 166.2078 166.1921 166.104 165.9954 166.1266 166.0897 166.06 166.1824 166.0847 165.9509 165.9409 165.9365 165.8093 165.8353 165.984 165.9394 165.599 165.5546 165.644 165.863 166.0092 166.0353 165.793 165.3633 165.2057 165.1559 165.4196 165.651 165.7073 165.6836 165.6336 165.4696 165.4516 165.5089 166.0153 166.0406 167.4472 169.2295 169.1689 167.8605 168.157 167.1335 166.812 166.5655 166.4417 166.6038 166.3818 166.2427 166.2433 166.259 166.3187 166.4329 166.1753 166.038 166.1031 166.1355 166.0457 165.9837 163.4447 162.2812 162.22 162.22 162.22 162.22 162.2239 162.23 162.23 162.23 162.23 162.23 162.23 162.23 162.23 162.24 162.24 162.24 162.24 162.24 162.2429 162.25 162.25 162.25 162.26 162.26 162.26 162.2628 162.4888 163.2281 164.8471 165.8867 166.4143 166.2694 166.0964 166.3082 166.3305 166.2868 166.3187 166.5712 166.6363 166.811 166.4672 166.3322 166.0981 165.798 165.6042 165.7776 166.2705 166.6475 166.7934 166.651 166.4366 166.5748 166.6627 166.6869 166.552 166.653 166.6567 166.7054 166.4336 166.4025 166.7949 166.8246 166.8758 166.8012 166.351 166.7666 166.8537 166.0786 166.8891 166.8129 166.8024 167.0816 167.1491 167.0857 167.047 166.9655 166.9675 167.075 166.8517 166.8512 167.0155 166.888 166.7895 166.3534
202.4486 203.48 203.8154 203.8076 203.4135 202.6466 201.6386 200.2863 196.9805 191.2728 188.4962 188.253 188.2423 188.1266 188.0135 187.8707 186.9902 186.8672 186.7298 186.4889 186.2945 186.1142 185.9496 185.8351 185.7214 185.6832 185.597 185.4023 185.2029 185.0838 185.0017 184.8452 184.8287 184.8327 184.8485 185.1516 185.3768 185.5803 185.772 186.3458 186.4911 186.7465 186.7883 186.9909 187.2009 187.4456 187.546 187.2064 187.2953 187.8154 187.6183 187.7975 188.0215 188.1876 188.352 188.1591 189.5029 191.5896 192.0029 195.3789 196.0591 196.8977 197.032 197.4742 197.5137 195.6391 190.9521 188.2552 185.51 183.7112 183.6338 183.6674 183.7304 183.0365 177.7484 175.9909 174.8422 174.0811 173.1599 171.573 169.3463 168.2618 166.1618 165.1328 163.0581 161.88 161.88 161.88 161.88 161.88 161.88 161.88 161.88 165.0315 165.9545 166.0062 165.9048 165.8467 165.7404 165.6261 165.7144 165.6908 165.664 165.686 165.8385 165.6714 165.6105 165.5633 165.3947 165.3474 165.2283 165.1064 165.2931 165.3901 165.3131 165.4238 165.5318 165.4294 165.4014 165.3148 165.3645 165.252 165.1955 165.0991 165.0576 165.1872 165.0913 165.016 164.9081 164.8066 164.808 164.9128 164.8101 164.7402 164.8649 165.141 165.3179 165.4005 165.3228 165.2351 165.253 165.2969 165.28 165.3284 165.4251 165.4393 165.5749 165.6699 165.8609 166.0779 166.2488 166.2282 166.2565 166.1495 166.0059 165.9687 166.1225 166.2764 166.3825 166.4345 166.451 166.4751 166.4226 166.5428 166.6548 166.6049 166.5382 166.5528 166.5042 166.5471 166.5332 166.4771 166.48 166.4986 166.6031 166.6152 166.5187 166.5805 166.7055 166.5809 166.6448 166.6595 166.6374 166.4551 166.4157 166.5824 166.6581 166.6851 166.737 166.7532 166.6296 166.588 166.3741 166.2494 166.1236 166.1408 166.0282 165.991 166.1525 166.1192 166.0889 166.2487 166.1008 165.9707 165.9669 165.8789 165.8066 165.9133 166.0548 165.9355 165.5747 165.5182 165.7385 165.968 166.108 166.0871 165.858 165.4284 165.1871 165.3751 165.701 165.8549 165.8754 165.7802 165.6246 165.5392 165.4518 165.503 166.0205 166.374 166.9447 168.8122 168.9178 168.055 168.104 166.9962 166.7526 166.7629 166.5823 166.5509 166.323 166.1611 166.1015 166.1557 166.2447 166.3173 166.3312 166.2817 166.2713 166.1513 166.2172 166.4099 166.2507 165.1275 162.3457 162.22 162.22 162.22 162.23 162.23 162.23 162.23 162.23 162.23 162.23 162.23 162.23 162.2334 162.24 162.24 162.24 162.24 162.25 162.25 162.25 162.25 162.26 162.26 162.26 162.26 162.26 162.26 162.26 162.26 162.3209 163.27 164.1736 165.6626 165.9572 166.2944 166.886 166.9638 166.9036 166.8085 166.7123 166.5525 166.6341 166.2863 166.2634 166.6605 166.6254 167.0227 166.942 166.7095 166.814 166.8393 166.853 166.9059 166.7342 166.9371 166.9193 166.9943 166.9948 167.0159 166.9799 167.0335 166.9485 166.9329 167.035 167.0951 166.9117 167.2309 167.2005 167.2007 166.9243 166.9524 167.3878 167.1351 165.5727 164.5144 164.2999 163.5047 162.478 162.411 162.3851 162.3632 162.35 162.36
202.5184 203.0755 202.8865 202.479 202.0671 201.4711 200.3298 198.8015 195.5919 189.9222 187.8044 187.9182 187.724 187.502 187.351 187.3479 186.8889 186.7005 186.58 186.4683 186.3671 186.2658 186.1513 186.0341 185.9467 185.9661 185.922 185.7258 185.4953 185.3792 185.3515 185.262 185.1077 185.1528 185.3742 185.656 185.9486 186.2528 186.407 186.4774 186.6703 186.8768 186.9923 187.2085 187.3089 187.5921 187.6076 187.3851 187.4423 187.5965 187.7363 187.9622 188.204 188.2741 188.2881 188.4619 191.406 192.9743 193.7672 198.728 197.4111 197.0404 197.8636 197.4075 196.3603 194.9592 192.3671 189.0836 185.6671 183.7507 183.8051 183.8858 183.4993 180.2201 177.2868 174.6718 173.7274 173.0059 171.565 170.8108 168.8002 168.0412 165.917 164.9066 162.9287 161.88 161.88 161.88 161.88 161.88 161.88 161.88 161.88 164.9592 165.9335 166.063 165.9869 165.8116 165.7441 165.7161 165.7403 165.68 165.6546 165.7727 165.8159 165.8657 165.7176 165.5141 165.4144 165.1973 165.195 165.1566 165.2574 165.2748 165.4027 165.491 165.4246 165.2867 165.2606 165.2432 165.2138 165.097 165.1142 165.0658 165.121 165.0862 164.8853 164.851 164.8035 164.7817 164.7239 164.7249 164.7375 164.718 164.9346 165.0902 165.2332 165.3218 165.4547 165.3747 165.419 165.5246 165.5008 165.5817 165.5961 165.6542 165.7168 165.788 165.9509 166.0751 166.1562 166.1686 166.1581 166.1633 166.0624 166.0776 166.1947 166.2505 166.329 166.2878 166.3531 166.3531 166.3302 166.435 166.6704 166.4669 166.4666 166.3773 166.4549 166.3888 166.413 166.4726 166.4472 166.5448 166.6396 166.543 166.3711 166.4226 166.5349 166.4207 166.4877 166.525 166.4618 166.3312 166.3079 166.4908 166.5295 166.6232 166.6961 166.5529 166.4556 166.4668 166.2812 166.2025 166.125 166.1105 165.9621 166.0342 166.1414 166.1087 166.0734 166.2502 166.0509 165.9599 165.8164 165.8362 165.8517 165.9845 166.1523 165.9189 165.6004 165.6281 165.8495 166.0672 166.1973 166.083 165.7491 165.3171 165.125 165.5652 165.9991 166.083 165.9475 165.8036 165.6063 165.5437 165.4388 165.5258 165.9601 166.5131 166.6559 168.3877 168.7254 168.1626 168.0183 166.8304 166.6533 166.5886 166.463 166.5926 166.4428 166.2112 166.1727 166.303 166.4208 166.5314 166.5532 166.393 166.282 166.1933 166.2272 166.3511 166.3557 166.3159 165.8998 163.6451 162.2867 162.23 162.23 162.23 162.23 162.23 162.23 162.23 162.23 162.23 162.23 162.24 162.24 162.24 162.24 162.24 162.25 162.25 162.25 162.26 162.26 162.26 162.26 162.26 162.26 162.26 162.26 162.26 162.27 162.27 162.27 162.27 162.27 162.3972 163.5635 165.0018 165.4031 166.1471 166.7003 166.8335 166.9979 166.8198 166.9356 167.0424 166.9844 166.9113 166.9643 166.9025 166.7043 166.7811 167.0454 167.1784 166.8822 166.9679 167.0278 167.0258 167.1187 167.1403 167.0725 167.2241 167.0958 166.9699 166.9381 166.8142 166.4734 166.2526 166.1896 164.0663 163.0166 162.5169 162.635 162.3313 162.33 162.33 162.33 162.34 162.34 162.34 162.35 162.35 162.35 162.35
202.5942 202.0583 201.4077 201.0058 200.4383 199.4546 198.3093 197.1651 194.4402 189.5011 187.6405 187.7142 187.5274 187.3089 187.0847 186.9659 186.6659 186.5866 186.5158 186.5336 186.4929 186.3904 186.3199 186.3274 186.3376 186.2215 186.0692 185.9994 185.9522 185.9043 185.8515 185.6434 185.5863 185.7413 185.8699 186.0686 186.5493 187.0284 187.0845 186.8871 186.8912 187.0129 187.1326 187.4121 187.55 187.5032 187.6313 187.2591 187.2904 187.6021 187.7213 188.0439 188.2397 188.3241 188.2363 189.7472 194.088 194.2635 196.6516 197.8414 198.0912 198.4957 198.4003 197.6539 194.2095 190.6432 190.8533 187.6731 185.3454 183.8742 183.9417 183.8039 182.0615 178.7536 176.9205 175.3365 173.0628 172.9608 170.9995 169.2628 168.8377 166.8643 165.4684 164.9155 162.3649 161.88 161.88 161.88 161.88 161.88 161.88 161.88 161.88 164.5053 165.9248 165.9524 165.8395 165.7866 165.7525 165.7523 165.7485 165.7345 165.6406 165.7422 165.8153 165.7749 165.6696 165.4991 165.2061 165.0067 165.043 165.1604 165.2282 165.3555 165.3414 165.3626 165.2451 165.3239 165.2647 165.3158 165.2112 165.1153 165.0605 165.0321 165.0026 165.0762 164.868 164.7838 164.6726 164.6912 164.6675 164.6645 164.7084 164.5711 164.7742 164.8608 165.0286 165.144 165.2556 165.3326 165.4411 165.4162 165.4404 165.5653 165.5657 165.6731 165.696 165.8262 165.9307 165.9828 166.0781 166.1053 166.1062 166.0864 166.067 166.0381 166.1623 166.2158 166.2542 166.2831 166.2915 166.3481 166.3424 166.4326 166.7126 166.4631 166.42 166.461 166.4759 166.4529 166.4626 166.4973 166.4947 166.543 166.5377 166.3428 166.1774 166.2771 166.3221 166.259 166.2977 166.3832 166.2708 166.2084 166.1904 166.3912 166.4698 166.4159 166.5618 166.4179 166.3613 166.2898 166.2439 166.1585 166.0918 166.043 165.9848 166.0647 166.117 166.0744 166.0487 166.2148 166.0049 165.9905 165.7909 165.7779 165.8733 166.059 166.1234 165.9088 165.5056 165.6177 165.8949 166.0744 166.1031 165.9368 165.5605 165.2109 165.2895 165.8013 166.1475 166.1264 166.0264 165.7058 165.5513 165.4846 165.505 165.6336 165.9152 166.6902 166.5735 168.0042 168.5156 168.3501 167.825 166.8391 166.5993 166.4897 166.5921 166.5523 166.3655 166.1432 166.1119 166.2601 166.4642 166.5607 166.5723 166.5217 166.3864 166.2901 166.2909 166.3996 166.387 166.3094 166.3164 166.3469 166.0479 163.9339 162.4015 162.23 162.23 162.23 162.23 162.23 162.23 162.23 162.24 162.24 162.24 162.24 162.24 162.24 162.25 162.25 162.2521 162.26 162.26 162.26 162.26 162.26 162.26 162.26 162.26 162.26 162.27 162.27 162.27 162.27 162.27 162.27 162.27 162.27 162.28 162.28 162.28 162.4193 162.7185 163.5376 163.6441 164.0003 164.3391 164.7574 164.4413 164.4095 164.6858 165.0874 164.9723 164.4132 164.7737 164.956 164.2329 164.4503 162.7793 163.1642 162.7956 162.8602 162.4787 162.3179 162.3136 162.3101 162.32 162.32 162.32 162.3217 162.33 162.33 162.33 162.33 162.33 162.33 162.33 162.3393 162.34 162.34 162.35 162.35 162.35 162.35
202.3653 201.5868 200.6698 199.4715 198.0023 197.2574 196.6694 193.3583 188.7019 187.8507 187.878 187.5903 187.3187 187.1136 186.9453 186.7383 186.5482 186.5084 186.6167 186.6555 186.591 186.6489 186.7899 186.7595 186.5778 186.4697 186.4322 186.4419 186.4615 186.453 186.4376 186.2798 186.2178 186.4183 186.4966 186.8896 187.4124 187.7245 187.8109 187.1842 187.3397 187.4914 187.622 187.659 187.6551 187.5611 187.5757 187.0061 187.3193 187.4447 187.7292 187.8659 188.0013 189.0284 190.3085 192.3002 194.8841 196.0083 197.3483 196.8674 197.1928 197.2129 197.4865 195.5112 191.766 189.7379 188.1851 187.1665 183.832 183.9607 183.9462 183.2833 180.3773 179.478 179.1205 174.5848 172.2552 170.9145 169.8717 168.8411 168.8778 166.5093 165.577 165.126 162.2458 161.88 161.88 161.88 161.88 161.88 161.88 161.88 161.88 164.6508 165.8899 166.0249 165.9646 165.7311 165.7382 165.7415 165.7627 165.7337 165.6131 165.65 165.6625 165.6333 165.4454 165.2331 165.0183 164.9481 165.0192 165.2126 165.3141 165.3876 165.4348 165.3551 165.278 165.3585 165.3422 165.3278 165.1701 165.0074 165.0501 164.9603 164.9065 164.9189 164.8901 164.7934 164.7167 164.7731 164.6668 164.7249 164.7158 164.7572 164.9269 164.9557 165.137 165.4535 165.575 165.6536 165.5865 165.5867 165.6349 165.7157 165.7615 165.8521 165.8977 165.9455 165.9876 166.1032 166.254 166.2504 166.1667 166.0683 165.998 166.0739 166.2276 166.3994 166.4825 166.4848 166.4281 166.4744 166.5399 166.5869 166.7975 166.4836 166.4102 166.3566 166.3666 166.4075 166.4098 166.4729 166.523 166.3371 166.4009 166.1068 166.0137 166.0051 166.1305 166.0952 166.1804 166.176 166.1021 166.0544 166.0556 166.2307 166.3135 166.3365 166.3489 166.3016 166.2516 166.2636 166.1983 166.1111 166.0023 166.0731 165.9687 165.9977 166.0545 166.0322 166.0286 166.0961 165.9348 165.9221 165.7347 165.805 165.9768 166.049 166.0866 165.8199 165.4156 165.6612 165.9115 166.0669 166.0411 165.7333 165.3322 165.1715 165.5585 166.026 166.2095 166.1097 165.9505 165.6347 165.6036 165.4798 165.5367 165.6526 165.7947 166.2202 167.049 167.7235 168.264 168.1705 167.7641 167.6226 167.4327 167.2808 166.6093 166.6508 166.4315 166.2545 166.2662 166.3213 166.4328 166.5055 166.5818 166.581 166.4487 166.3272 166.324 166.3226 166.2938 166.3376 166.3409 166.3764 166.4397 166.4153 166.3082 165.74 163.9674 163.0562 162.7033 163.1778 162.9616 162.241 162.24 162.24 162.24 162.24 162.24 162.24 162.25 162.25 162.25 162.25 162.25 162.2554 162.26 162.26 162.26 162.26 162.26 162.26 162.27 162.27 162.27 162.27 162.27 162.27 162.27 162.2722 162.28 162.28 162.28 162.28 162.28 162.28 162.28 162.2816 162.29 162.29 162.29 162.29 162.3 162.3 162.3 162.3 162.3 162.3 162.3 162.31 162.31 162.31 162.31 162.31 162.31 162.31 162.31 162.31 162.32 162.32 162.32 162.32 162.33 162.33 162.33 162.33 162.33 162.33 162.33 162.33 162.34 162.34 162.3492 162.35 162.35 162.35
202.6076 201.96 200.7744 199.2932 197.9613 196.7806 192.2486 187.9312 187.7396 187.7313 187.4887 187.1767 186.8902 186.6755 186.5657 186.4508 186.4172 186.3679 186.5791 186.6875 186.959 187.0994 186.9761 186.8491 186.8363 186.9505 187.0538 187.0675 187.026 187.0833 187.2498 187.1216 187.0227 187.3229 187.5811 187.6712 187.9649 188.131 187.986 187.0627 187.2971 187.5341 187.7963 187.7229 187.7848 187.7 187.66 187.1244 187.1519 187.3965 187.7797 187.8375 189.2475 191.0764 192.2698 196.5298 195.3136 195.0707 194.8234 196.3398 197.1246 195.4156 193.0243 191.3797 189.0313 188.4139 187.7622 184.6878 183.9164 183.9959 183.4703 182.5141 179.3213 177.6048 175.7005 173.002 170.8624 170.0188 169.273 168.9087 168.7915 166.0612 165.2457 165.4546 162.0012 161.88 161.88 161.88 161.88 161.88 161.88 161.88 161.88 163.78 165.8362 165.9975 165.9105 165.7241 165.7914 165.8356 165.7802 165.7964 165.6148 165.5757 165.4736 165.3089 165.1854 165.0475 164.8683 164.918 165.0295 165.082 165.2221 165.3372 165.3051 165.2618 165.2862 165.2918 165.3267 165.158 164.9741 164.8982 164.8848 164.8627 164.8487 164.9527 164.9291 164.8348 164.7872 164.6816 164.8106 164.7292 164.7274 164.8657 164.9154 165.179 165.51 165.6803 165.7678 165.6985 165.6408 165.7348 165.7577 165.7705 165.924 166.012 165.9508 165.8461 165.91 166.0479 166.2007 166.2337 166.145 166.0822 166.0241 166.1941 166.2449 166.4308 166.4493 166.425 166.4038 166.4713 166.4704 166.5349 166.7553 166.4405 166.4008 166.3257 166.2671 166.364 166.3982 166.3281 166.3693 166.206 166.1446 165.9158 165.821 165.8986 166.0136 166.0051 166.0617 166.0219 165.9913 165.9969 166.022 166.149 166.2127 166.2059 166.2697 166.1554 166.1557 166.1558 166.1061 165.9805 165.9743 166.0932 165.9876 165.9881 166.0469 165.9923 165.9774 165.9893 165.862 165.7944 165.6671 165.9019 166.0421 166.0013 165.8664 165.563 165.5198 165.7334 165.9606 165.9593 165.8556 165.451 165.1956 165.3671 165.8391 166.1637 166.1511 166.0756 165.8465 165.5935 165.4753 165.5209 165.675 165.7601 165.8033 165.9056 166.0536 166.5417 167.8815 168.0396 167.5039 167.4736 167.5419 167.4366 166.7439 166.6629 166.4052 166.2549 166.2747 166.3371 166.4121 166.4868 166.4965 166.4837 166.3795 166.3674 166.3105 166.3095 166.2671 166.3121 166.3108 166.3402 166.3791 166.3876 166.3987 166.4068 166.4482 166.3862 166.3994 166.4347 166.5607 166.0777 163.7535 162.2569 162.24 162.24 162.24 162.25 162.25 162.25 162.25 162.25 162.25 162.25 162.26 162.26 162.26 162.26 162.26 162.2615 162.27 162.27 162.27 162.27 162.27 162.27 162.27 162.28 162.28 162.28 162.28 162.28 162.28 162.28 162.28 162.29 162.29 162.29 162.29 162.29 162.2914 162.3 162.3 162.3 162.3 162.3 162.3 162.31 162.31 162.31 162.31 162.31 162.31 162.31 162.31 162.31 162.32 162.32 162.32 162.32 162.33 162.33 162.33 162.33 162.33 162.33 162.33 162.33 162.34 162.34 162.3402 162.35 162.35 162.35
202.5242 202.1678 201.0134 199.405 198.0044 196.5966 192.1401 187.9632 187.5864 187.5362 187.3043 186.9981 186.7788 186.5981 186.425 186.2862 186.3798 186.4629 186.7465 186.9838 187.1323 187.2152 187.1869 187.0932 187.116 187.3153 187.5031 187.6488 187.762 187.8961 188.0972 188.0894 188.0917 188.3652 188.4726 188.523 188.394 188.4019 188.4039 187.3068 187.3662 187.4876 187.756 187.8542 187.9604 187.8676 187.6493 189.1958 190.2978 191.5866 194.338 197.8326 197.4466 196.8644 196.397 196.177 195.2599 194.9448 195.1285 194.9112 193.3151 192.8393 192.5296 189.8969 188.8537 188.0908 186.1785 183.7851 183.9204 183.7088 182.5563 180.2936 178.2914 175.8659 173.7399 172.2862 170.9685 170.1558 171.087 170.0582 168.6451 166.3661 165.3818 163.2705 161.88 161.88 161.88 161.88 161.88 161.88 161.88 161.88 161.88 163.269 165.917 165.7769 165.8895 165.7813 165.8075 165.8139 165.7619 165.6859 165.5267 165.4255 165.2609 165.1531 164.9817 164.8797 164.8069 164.9881 165.1242 165.0502 165.6411 165.8566 165.6819 165.525 165.2145 165.2958 165.1915 164.9856 164.762 164.7919 164.8363 164.8705 164.8139 164.7626 164.8361 164.787 164.6925 164.7513 164.749 164.8593 164.8605 164.9695 165.2708 165.5021 165.7233 165.7558 165.7663 165.6588 165.6491 165.6913 165.7604 165.8093 165.9546 166.0294 166.0014 165.9185 165.8204 165.8438 166.0022 166.1365 166.1132 166.0027 166.0395 166.1118 166.1659 166.3422 166.3736 166.395 166.3145 166.4298 166.4219 166.3733 166.6214 166.333 166.3536 166.2002 166.1961 166.291 166.3236 166.2546 166.1984 166.0866 165.9707 165.7429 165.7397 165.8135 165.9095 165.9293 165.9354 165.9456 165.8856 165.8783 165.8858 166.0296 166.0574 166.1101 166.1214 166.0529 166.0612 166.0401 166.0392 165.9468 165.9587 166.0247 165.9765 165.9915 166.0292 165.955 165.9432 165.9409 165.8286 165.7423 165.7074 165.9503 165.964 165.8034 165.6082 165.424 165.6243 165.884 165.8882 165.8316 165.5547 165.1679 165.1371 165.5169 166.0268 166.1715 166.0518 165.9854 165.7648 165.565 165.4256 165.52 165.75 165.8185 165.9041 165.9405 165.9843 166.2199 167.5442 167.9084 167.3497 167.5986 167.4563 167.403 166.4679 166.5662 166.3096 166.1888 166.3291 166.2948 166.2327 166.3195 166.2915 166.3562 166.3873 166.3338 166.3284 166.3357 166.32 166.3545 166.4006 166.4006 166.4346 166.4385 166.4158 166.4294 166.4333 166.4104 166.42 166.4739 166.5194 166.4599 166.5379 165.9457 163.5201 162.24 162.2431 162.25 162.25 162.25 162.25 162.25 162.25 162.2534 162.26 162.26 162.26 162.26 162.26 162.26 162.26 162.26 162.27 162.27 162.27 162.27 162.27 162.28 162.28 162.28 162.28 162.28 162.28 162.28 162.281 162.29 162.29 162.29 162.29 162.29 162.29 162.3 162.3 162.3 162.3 162.3 162.3 162.31 162.31 162.31 162.31 162.31 162.31 162.31 162.31 162.31 162.32 162.32 162.32 162.32 162.3201 162.3279 162.33 162.33 162.33 162.33 162.33 162.33 162.33 162.34 162.34 162.35 162.35 162.35
202.2348 201.9523 200.8083 199.2475 197.8843 196.6292 192.2619 188.0548 187.6006 187.4615 187.1453 186.8671 186.6891 186.5332 186.4463 186.4051 186.6329 186.8071 187.0668 187.1558 187.1523 187.1823 187.2103 187.2627 187.5251 187.8814 188.0943 188.2511 188.434 188.6392 188.8639 189.1165 189.3556 189.5507 189.7089 189.5344 189.1985 188.7494 188.9055 187.6505 187.785 187.6097 187.6326 187.6675 187.7061 187.7223 188.6741 196.3531 197.4817 197.3131 197.5481 197.0214 196.6819 196.334 196.0411 195.5509 195.2665 194.8589 194.5778 194.4371 194.3481 194.2777 192.9754 190.623 188.2577 187.1884 183.8193 183.8624 183.7416 182.9348 180.4374 178.8809 176.6241 174.2397 172.4744 170.9458 169.8265 170.0116 170.32 168.5383 168.3094 166.4288 165.3575 165.2418 161.88 161.88 161.88 161.88 161.88 161.88 161.88 161.88 161.88 164.4948 166.0575 166.037 165.8685 165.7428 165.8194 165.7372 165.687 165.5778 165.3235 165.1945 165.0379 164.9137 164.805 164.7036 164.8397 165.0478 165.1121 165.0863 165.1286 165.0958 165.1684 165.1286 165.1191 165.0945 164.9096 164.716 164.6878 164.7287 164.8003 164.8205 164.7988 164.7062 164.7252 164.5677 164.5783 164.7021 164.7571 164.8388 164.9232 165.205 165.6277 165.728 165.7778 165.7844 165.7231 165.6708 165.5981 165.6971 165.7779 165.8451 165.9574 166.1153 166.1257 166.0271 165.9348 165.7767 165.8057 165.9551 166.0595 165.9789 165.9937 166.0771 166.1777 166.3202 166.3163 166.3065 166.2281 166.2796 166.3214 166.3401 166.5111 166.2552 166.2527 166.191 166.1225 166.231 166.1913 166.2149 166.01 165.9921 165.8499 165.7164 165.5839 165.7222 165.8228 165.8284 165.8711 165.9002 165.7839 165.7701 165.8431 165.9478 165.921 166.0198 165.966 165.8681 165.9487 165.946 165.9176 165.9037 165.9366 165.9875 165.9276 166.0085 165.9451 165.8972 165.8801 165.8347 165.7664 165.7038 165.775 165.9673 165.736 165.5659 165.4385 165.506 165.8131 165.9785 165.8819 165.6857 165.2913 165.116 165.3627 165.8321 166.1662 166.1893 166.0039 165.994 165.7715 165.5995 165.3863 165.4935 165.7023 165.8222 165.8022 165.8586 165.8421 166.0504 167.1277 167.6352 167.2185 167.3184 167.3987 167.463 166.4753 166.4686 166.3437 166.256 166.3833 166.2768 166.2727 166.2457 166.3036 166.2907 166.2812 166.264 166.2363 166.2686 166.258 166.3228 166.2724 166.3005 166.3632 166.2754 166.1824 166.3342 166.3899 166.4343 166.5124 166.477 166.472 166.45 166.5255 166.5731 166.5853 166.0264 163.8718 162.3942 162.25 162.25 162.25 162.25 162.25 162.2535 162.26 162.26 162.26 162.26 162.26 162.26 162.26 162.26 162.27 162.27 162.27 162.27 162.27 162.28 162.28 162.28 162.28 162.28 162.28 162.28 162.29 162.29 162.29 162.29 162.29 162.29 162.29 162.3 162.3 162.3 162.3 162.3 162.3 162.31 162.31 162.31 162.31 162.31 162.31 162.31 162.31 162.31 162.32 162.32 162.32 162.32 162.32 162.32 162.33 162.33 162.33 162.33 162.33 162.33 162.33 162.34 162.34 162.3496 162.35 162.35
202.0293 201.7766 200.6354 199.0257 197.7535 196.6514 192.3508 188.1301 187.6224 187.4132 187.0467 186.6776 186.4646 186.394 186.4585 186.5951 187.1137 187.3443 187.3523 187.2059 187.0816 187.0198 187.1182 187.3656 187.5442 187.827 188.0364 188.1385 188.163 188.2313 188.7878 192.2003 195.7468 196.0939 195.903 195.74 195.4545 194.9945 194.0233 192.9019 190.1226 190.1313 189.0001 187.9823 188.0627 188.7947 189.7853 196.0865 196.6029 197.0029 197.1518 196.7599 196.639 196.2757 195.9084 195.4527 195.1503 195.1269 195.3228 195.1048 195.1281 195.2469 194.35 191.2184 187.8603 185.1375 183.6922 183.7447 183.1673 180.3502 177.9132 176.2561 174.3985 172.5398 170.7136 169.278 169.295 169.3392 167.8664 167.6018 167.9782 166.0533 165.5042 164.4129 161.88 161.88 161.88 161.88 161.88 161.88 161.88 161.88 161.88 163.8741 165.8102 166.0433 165.9634 165.7522 165.8007 165.6769 165.5899 165.4283 165.1938 165.0832 164.8594 164.831 164.7418 164.7573 164.915 165.1079 165.1136 165.0854 165.0757 165.1059 165.1169 165.0848 164.9952 164.8702 164.6073 164.5441 164.6116 164.6385 164.7974 164.8712 164.7916 164.7155 164.4782 164.4268 164.4691 164.6141 164.788 164.9306 165.1286 165.5022 165.6476 165.7577 165.7912 165.7441 165.658 165.5594 165.5566 165.6124 165.6648 165.7264 165.9188 166.0444 166.1249 166.1551 166.023 165.8827 165.7428 165.7352 165.9046 165.8914 165.9847 166.0589 166.121 166.2412 166.2081 166.1594 166.1057 166.1642 166.1773 166.2261 166.4407 166.1358 166.142 166.0748 165.9865 166.054 166.0565 166.0711 165.9077 165.8694 165.8031 165.6444 165.5401 165.7027 165.7672 165.7808 165.8418 165.8876 165.7599 165.7502 165.7709 165.8702 165.8788 165.9675 165.8865 165.8683 165.879 165.8881 165.804 165.8253 165.867 165.9111 165.9043 165.9132 165.8522 165.8397 165.7575 165.7671 165.663 165.7158 165.7912 165.6575 165.5566 165.4525 165.4622 165.7355 165.9778 165.9742 165.7713 165.4004 165.0837 165.2317 165.6345 166.0197 166.167 166.0636 165.9409 165.9756 165.7524 165.5311 165.3729 165.5241 165.6249 165.638 165.6725 165.6692 165.6673 165.709 166.6815 167.4687 167.2364 167.1889 167.36 167.2014 166.2792 166.3238 166.2003 166.1234 166.2417 166.2458 166.2412 166.2347 166.2624 166.2834 166.1918 166.1131 166.142 166.1852 166.177 166.1502 166.2361 166.2205 166.1059 165.8633 165.7248 165.8122 166.1091 166.3689 166.3754 166.341 166.3388 166.3152 166.2882 166.3553 166.4679 166.4406 166.4537 166.5197 166.1904 164.2252 162.4476 162.2607 162.25 162.2537 162.26 162.26 162.26 162.26 162.26 162.26 162.26 162.2631 162.27 162.27 162.27 162.27 162.27 162.28 162.28 162.28 162.28 162.28 162.28 162.28 162.29 162.29 162.29 162.29 162.29 162.29 162.29 162.2917 162.3 162.3 162.3 162.3 162.3 162.3013 162.31 162.31 162.31 162.31 162.31 162.31 162.31 162.31 162.3107 162.32 162.32 162.32 162.32 162.32 162.33 162.33 162.33 162.33 162.33 162.33 162.33 162.3398 162.34 162.34 162.35 162.35
201.7571 201.4111 200.2691 198.7386 197.6301 196.5552 192.2225 188.0855 187.6994 187.5554 187.3138 187.0208 186.7244 186.5757 186.7427 186.969 187.4352 187.4319 187.301 187.2289 187.1077 187.0965 187.2268 187.4172 187.7357 188.1045 188.2569 188.174 188.6896 191.0311 194.6193 196.3508 196.2051 196.2227 196.166 196.0125 195.8316 195.6395 196.3686 197.1689 197.766 197.5746 197.4427 197.5418 196.8667 196.7073 197.0321 197.2249 197.2145 197.3858 197.4275 197.4389 197.0572 196.5647 196.1125 195.6011 195.5127 195.6409 195.7291 195.6964 195.4515 195.3783 192.8602 189.8651 186.6097 183.6419 183.6947 183.2192 182.5172 180.0877 176.1029 173.0342 172.1782 170.7529 169.3691 167.9607 167.6399 167.1516 166.7119 168.0617 167.3683 165.7626 165.3089 162.8311 161.88 161.88 161.88 161.88 161.88 161.88 161.88 161.88 161.88 164.414 166.18 165.9283 165.9702 165.8133 165.7897 165.6081 165.4704 165.2746 165.032 164.8769 164.7315 164.7432 164.8197 164.8906 164.9929 165.1446 165.1188 165.1712 165.1073 165.1474 165.1083 165.0077 164.8365 164.6172 164.4417 164.4519 164.5777 164.7082 164.7777 164.825 164.8238 164.5666 164.4091 164.5051 164.6145 164.7149 164.8792 165.1211 165.4255 165.6586 165.7446 165.8355 165.9043 165.8531 165.7077 165.5377 165.4359 165.5695 165.6558 165.6931 165.9043 165.985 166.0738 166.1328 166.1775 166.0022 165.8407 165.6956 165.7353 165.8338 165.9315 165.9955 166.0419 166.1211 166.0694 165.9814 165.9464 165.9888 166.0982 166.1514 166.2537 166.0288 166.0489 165.99 165.9074 165.9646 166.0033 165.9649 165.8611 165.8497 165.702 165.6036 165.5941 165.7449 165.7191 165.7845 165.8527 165.8164 165.7175 165.6946 165.7127 165.7738 165.7869 165.8055 165.7842 165.7662 165.7784 165.79 165.7472 165.7289 165.7317 165.878 165.807 165.8105 165.7517 165.7361 165.7077 165.7191 165.6014 165.7239 165.6187 165.582 165.4003 165.4554 165.5792 165.902 165.904 165.7859 165.459 165.1824 165.2007 165.3957 165.853 166.0143 166.0176 165.9639 165.9285 165.9176 165.7065 165.5162 165.3722 165.4974 165.5887 165.6235 165.5148 165.5143 165.5116 165.3612 166.2944 167.3084 167.3561 166.6185 166.528 166.4713 166.0343 166.0484 165.9784 165.9911 166.0986 166.1077 166.0846 166.1407 166.2334 166.2659 166.2024 165.9012 165.8916 165.8613 165.8352 166.042 166.1577 165.9781 165.725 165.5883 165.437 165.425 165.6239 166.0588 166.1382 166.1283 166.1386 166.0921 166.1236 166.142 166.1556 166.1849 166.2329 166.3659 166.4654 166.4363 166.4323 166.4453 166.2373 163.985 162.9619 162.4787 162.26 162.26 162.26 162.26 162.26 162.27 162.27 162.27 162.27 162.27 162.27 162.28 162.28 162.28 162.28 162.28 162.28 162.28 162.29 162.29 162.29 162.29 162.29 162.29 162.29 162.29 162.3 162.3 162.3 162.3 162.3 162.3003 162.31 162.31 162.31 162.31 162.31 162.31 162.31 162.31 162.3109 162.32 162.32 162.32 162.32 162.32 162.33 162.33 162.33 162.33 162.33 162.33 162.33 162.33 162.34 162.3502 162.6358 163.1735
201.294 200.866 199.7446 198.4646 197.604 196.5595 192.2217 188.0475 187.5849 187.5385 187.3131 186.8732 186.6606 186.9612 187.4214 187.5237 187.6953 187.5385 187.506 187.5488 187.5351 187.4511 187.4389 187.6714 188.1028 188.4589 188.5091 189.2416 191.9557 195.9022 197.3093 197.121 197.1049 197.1666 197.2297 197.2456 197.1189 197.1947 196.8269 197.5602 197.2565 197.4498 197.4039 197.8614 197.6708 197.5814 197.622 197.2602 197.6859 197.6647 197.5381 197.6405 197.3331 196.7465 196.1002 196.0329 196.0857 196.2004 196.1966 195.924 195.6291 193.251 190.9276 188.1513 183.8487 183.6734 183.513 182.184 182.3965 179.1844 175.9362 173.1438 170.5225 169.0182 167.4934 167.222 166.9301 166.753 166.4938 168.4368 167.0056 165.3593 165.1989 163.6038 161.88 161.88 161.88 161.88 161.88 161.88 161.88 161.88 161.88 163.8563 166.0861 166.024 165.778 165.7791 165.6773 165.4881 165.284 165.1456 164.8926 164.745 164.7162 164.8233 164.8999 164.9536 164.9837 165.1406 165.1692 165.1561 165.1444 165.1292 165.0452 164.8955 164.6232 164.504 164.4316 164.5565 164.6711 164.7814 164.8036 164.814 164.6824 164.4954 164.4686 164.605 164.7482 164.929 165.2126 165.5586 165.7552 165.8107 165.9127 166.0107 166.0968 166.0901 165.8786 165.5454 165.3791 165.5038 165.5993 165.6403 165.8003 165.9453 166.0738 166.1933 166.1891 166.0886 165.931 165.7538 165.6702 165.7612 165.8731 166.0072 165.9627 165.9537 165.9374 165.8548 165.8291 165.8739 165.9334 166.0009 166.1129 165.9387 165.904 165.8753 165.7986 165.9146 165.8995 165.8659 165.8409 165.796 165.7064 165.5849 165.5648 165.7008 165.7452 165.7654 165.814 165.7991 165.6459 165.6523 165.7022 165.645 165.6381 165.6867 165.7356 165.6496 165.6821 165.6351 165.6603 165.59 165.6705 165.7322 165.7063 165.7278 165.7326 165.7369 165.6893 165.6204 165.5819 165.5901 165.5586 165.494 165.4759 165.5818 165.8295 165.9086 165.8389 165.6214 165.2473 165.206 165.3626 165.733 165.8505 165.9619 165.8562 165.8066 165.8185 165.8232 165.6191 165.4713 165.4349 165.3904 165.4593 165.4345 165.299 165.3002 165.3037 165.1655 166.0346 167.2305 167.3519 166.4009 166.4562 165.9325 165.8831 165.9066 165.9125 165.9019 166.0767 165.9637 165.9781 165.9527 166.0559 166.0584 166.0123 165.6504 165.5688 165.5161 165.4265 165.4496 165.4766 165.4153 165.313 165.1798 165.1948 165.1815 165.2864 165.6828 165.9561 165.9596 166.0284 165.9748 165.9706 165.9964 166.0331 166.0428 166.0856 166.127 166.1634 166.2006 166.3546 166.3228 166.1881 166.2444 166.4995 166.296 165.6314 165.1745 163.7604 162.9911 163.0446 162.7119 162.3204 162.2854 162.27 162.27 162.2731 162.28 162.28 162.28 162.28 162.28 162.28 162.28 162.29 162.29 162.29 162.29 162.29 162.29 162.29 162.29 162.3 162.3 162.3 162.3 162.3 162.3 162.31 162.31 162.31 162.31 162.31 162.31 162.31 162.3127 162.4717 162.587 162.689 163.672 162.7415 162.4145 162.32 162.391 162.9022 164.0608 164.7878 164.3422 165.2341 165.885 166.3408 166.849 166.6653 166.0497
200.4607 199.9984 199.061 198.1749 197.614 196.8332 192.4224 188.1215 187.7103 187.5669 187.1699 186.8531 187.1564 187.6988 187.6421 187.5583 187.8974 187.7954 187.7255 187.7961 187.8407 187.7695 187.8099 188.0999 188.3228 188.4436 189.4902 193.0326 197.2335 198.2952 198.5099 198.6796 198.714 199.2164 200.3366 201.1007 201.2122 200.6515 200.3111 200.2179 199.6904 199.381 199.1634 199.4067 199.1423 198.7892 198.5466 197.7955 198.1059 197.731 197.6481 196.9375 196.616 196.3994 196.374 196.2462 196.3 196.2498 196.1797 196.0911 195.5159 192.1931 189.027 185.738 183.7643 183.5406 182.7279 181.7577 179.5163 177.1513 174.7061 172.2355 169.8451 167.7888 166.9288 166.9691 166.6053 166.5404 166.3831 168.6303 166.4423 164.9966 165.3429 162.3294 161.88 161.88 161.88 161.88 161.88 161.88 161.88 161.88 161.88 163.9982 165.9485 165.9616 165.6891 165.6125 165.5653 165.3698 165.185 164.9952 164.7813 164.7445 164.7323 164.8719 164.8559 164.8535 164.9417 165.1807 165.1356 165.094 165.0723 165.0624 164.8415 164.6451 164.4559 164.3839 164.5543 164.656 164.7112 164.8103 164.8065 164.7962 164.6275 164.5916 164.6027 164.7125 164.9752 165.4171 165.6957 165.8867 165.8764 165.8981 165.9536 166.0919 166.3093 166.3106 166.1448 165.6911 165.3575 165.4613 165.6144 165.6134 165.7283 165.9136 166.0532 166.1175 166.1926 166.1298 165.9945 165.8523 165.6706 165.7122 165.9024 165.9806 165.9708 165.9495 165.8746 165.8016 165.7566 165.7723 165.8585 165.9476 165.9605 165.7999 165.8073 165.725 165.7086 165.7909 165.7537 165.7586 165.7148 165.7477 165.6583 165.5741 165.5745 165.7178 165.7699 165.7453 165.7644 165.7507 165.5978 165.6054 165.5673 165.5847 165.6006 165.5872 165.6025 165.5836 165.5901 165.5967 165.5967 165.5372 165.6102 165.6481 165.7244 165.7383 165.6492 165.6207 165.6302 165.5415 165.5647 165.622 165.6096 165.5583 165.5894 165.7604 165.8095 165.8005 165.693 165.3664 165.0968 165.2645 165.5514 165.7651 165.8993 165.7813 165.6971 165.7189 165.7121 165.7422 165.6305 165.5058 165.4529 165.3603 165.2787 165.2753 165.2296 165.1905 165.1078 165.1677 165.7924 167.0914 167.3555 166.3319 165.994 165.8733 165.7147 165.7469 165.7534 165.685 165.8142 165.7598 165.6813 165.7254 165.7508 165.7792 165.6941 165.3955 165.2013 165.2101 165.1149 165.0252 164.9907 164.9887 164.9659 164.9205 164.9272 164.9365 165.1115 165.4868 165.8011 165.876 165.9032 165.9359 165.9375 165.9657 166.0143 166.022 166.05 166.0578 166.1097 166.0951 166.1182 166.148 166.1441 166.1783 166.2183 166.2775 166.2884 166.2923 166.3185 166.363 166.4742 166.6218 166.1255 166.1526 165.7052 165.722 164.6409 164.0328 163.4475 163.4777 164.6306 165.0774 165.404 165.0484 164.2577 163.7522 165.7642 164.5675 164.2673 164.5681 165.2815 165.1687 164.3454 164.8132 166.1044 165.1093 165.9102 165.4759 166.3296 166.4384 165.9243 166.2215 165.7406 165.3826 165.4023 165.6918 165.8308 165.9697 165.9355 166.1044 166.3131 166.1702 164.0442 163.0474 164.6987 164.9465 166.1851 166.4011 166.4479 166.308 166.0478 165.8766 165.7235 165.6466
199.2116 198.9788 198.4514 197.8878 197.5511 196.9917 193.4298 189.3041 187.9184 187.5223 187.2926 187.5488 187.8748 187.7065 187.5696 187.6359 188.0864 188.115 188.1175 188.0688 187.9794 187.814 187.9567 188.4263 188.8073 189.7221 193.9554 198.5666 199.9985 200.8916 201.2681 201.2108 201.136 201.3261 201.6781 201.9182 201.8605 201.992 200.732 199.5471 200.0282 199.8454 199.4331 199.1003 198.7338 198.6852 198.4232 197.798 196.7825 196.6266 195.7596 195.4341 195.9118 196.1091 196.2996 196.2799 196.2004 196.1082 196.1262 196.2166 194.5927 191.137 187.5955 183.8187 183.7181 183.3976 181.6386 180.9004 177.1853 174.8537 172.9547 171.076 168.7169 166.6941 166.5725 166.5614 166.4267 166.335 166.4263 168.6076 165.7065 164.9404 165.3896 162.3418 161.88 161.88 161.88 161.88 161.88 161.88 161.88 161.88 161.88 164.1082 166.0923 165.9056 165.6666 165.5616 165.4983 165.2065 165.0332 164.8588 164.741 164.7596 164.7835 164.8373 164.8092 164.8328 164.9178 165.0722 165.1393 165.081 165.0863 164.8869 164.6614 164.5522 164.4554 164.522 164.6442 164.702 164.82 164.8741 164.7863 164.7415 164.5905 164.6734 164.7851 164.9759 165.4113 165.8082 166.0274 165.9775 165.9354 165.8955 165.9667 166.1712 166.4139 166.393 166.2189 165.8354 165.3825 165.3467 165.5746 165.5878 165.6553 165.8118 166.0011 166.0777 166.0521 166.0463 165.9915 165.8728 165.7541 165.6595 165.8055 165.8718 165.8441 165.8063 165.7526 165.656 165.5471 165.6691 165.8117 165.8406 165.7403 165.7014 165.6529 165.6255 165.6451 165.7473 165.6957 165.7168 165.6336 165.7462 165.6571 165.592 165.6187 165.7554 165.6927 165.7342 165.6901 165.6158 165.4685 165.4372 165.4964 165.5103 165.4911 165.5309 165.4707 165.504 165.5546 165.5257 165.5034 165.4789 165.6395 165.6604 165.749 165.6679 165.6028 165.5154 165.5617 165.5511 165.6228 165.6782 165.5798 165.5634 165.5367 165.6733 165.7381 165.7251 165.4782 165.2324 165.0935 165.3549 165.6274 165.6522 165.642 165.623 165.5204 165.4952 165.4647 165.6345 165.5348 165.4737 165.4004 165.2039 165.1054 165.0335 164.9399 165.031 164.9895 165.0651 165.7798 167.0573 167.3009 166.5146 165.779 165.708 165.5966 165.6298 165.5802 165.5408 165.6677 165.5982 165.4961 165.4703 165.521 165.5405 165.3793 165.1621 164.9466 164.9232 164.7576 164.681 164.6937 164.6928 164.7952 164.7752 164.8349 164.897 164.9822 165.0828 165.1603 165.333 165.5939 165.852 165.903 165.92 165.897 165.8949 165.9852 166.0135 165.9984 166.0074 166.0322 166.0018 165.9896 166.0351 166.0042 166.0412 166.0729 166.0812 166.1425 166.2069 166.1779 166.1693 166.1857 166.139 166.0917 166.104 166.0321 166.0209 165.9421 165.9296 165.9503 165.9378 166.0046 165.8355 165.8873 165.9112 165.9738 165.8476 165.7554 165.9067 166.0507 166.2243 166.4481 166.5151 166.6716 166.8412 166.7449 166.87 166.8569 166.6875 166.5262 166.321 166.0866 165.901 165.7405 165.8263 165.7911 165.8741 165.9584 166.0782 166.2252 166.076 165.0334 162.8388 163.491 164.5514 166.1221 166.1855 165.9983 166.0579 165.8017 165.7396 165.7228 165.7995
198.1065 198.0177 197.7723 197.4846 197.1421 196.8201 196.9256 193.7894 188.4259 187.5015 187.8876 187.9038 187.7409 187.7277 187.8424 187.9251 188.2769 188.3163 188.3153 188.3129 188.161 188.0076 188.6187 190.1556 192.2623 196.1894 199.0786 200.3969 201.6828 202.3092 202.6803 202.9047 203.0097 202.978 202.6646 202.0374 201.8082 201.5294 200.4688 199.2321 199.7798 198.49 198.931 198.8814 198.7698 198.6059 198.5168 197.6455 196.7108 195.9978 195.4333 194.7113 195.2218 195.877 196.3012 196.1883 195.9884 195.9534 196.0048 194.8758 191.9613 188.7589 184.6485 183.8709 183.605 182.3949 181.2376 180.1987 177.3419 174.3545 171.6966 169.149 167.3254 166.5538 166.3441 166.2604 166.2819 166.2563 166.6218 168.462 165.4919 164.7366 165.1391 163.7088 161.88 161.88 161.88 161.88 161.88 161.88 161.88 161.88 161.88 164.1575 165.81 165.9094 165.7959 165.7042 165.3947 165.0756 164.925 164.828 164.7913 164.8374 164.8327 164.8436 164.8222 164.8465 164.9153 165.0362 165.0224 165.0029 164.8614 164.6405 164.4612 164.4233 164.5575 164.6498 164.7228 164.7688 164.7913 164.7749 164.7224 164.746 164.7392 164.8918 165.1225 165.5583 165.896 166.1099 166.1708 166.0176 165.8876 165.9091 166.0553 166.2586 166.4361 166.4427 166.2685 165.9142 165.4811 165.257 165.5015 165.5857 165.5926 165.7853 165.9778 165.9906 165.9554 165.9746 165.9157 165.8776 165.7665 165.6739 165.7838 165.758 165.7284 165.7081 165.6584 165.5143 165.4772 165.5818 165.6604 165.7849 165.6219 165.5691 165.5249 165.4887 165.5104 165.6518 165.6094 165.6558 165.5597 165.6946 165.6579 165.5504 165.5798 165.7127 165.6571 165.575 165.5169 165.4848 165.3684 165.371 165.434 165.4407 165.4112 165.4936 165.4674 165.4492 165.5189 165.523 165.5294 165.4899 165.5431 165.6044 165.5865 165.6037 165.5754 165.5058 165.5882 165.5667 165.6731 165.6623 165.6087 165.6119 165.4017 165.5728 165.5953 165.5356 165.3057 165.0782 165.1497 165.3801 165.4363 165.3628 165.3387 165.2965 165.1825 165.2134 165.2484 165.3967 165.3057 165.3043 165.0665 165.1119 165.1712 165.1741 165.1053 165.0864 165.1405 165.2388 165.8249 167.0377 167.3198 166.5574 165.7765 165.7596 165.6266 165.5493 165.5695 165.459 165.4609 165.4888 165.4074 165.3906 165.3683 165.2379 164.92 164.8141 164.6938 164.7314 164.6205 164.5386 164.6366 164.5711 164.5876 164.5494 164.6775 164.7429 164.8757 164.9358 164.9604 165.0548 165.2592 165.4543 165.5285 165.5539 165.5555 165.5874 165.584 165.607 165.5927 165.5871 165.5946 165.5681 165.5617 165.5781 165.5197 165.5322 165.5259 165.5286 165.4828 165.502 165.5443 165.5543 165.5435 165.5633 165.5365 165.573 165.5861 165.5676 165.5588 165.66 165.7542 165.7215 165.7628 165.8632 165.8064 165.7573 165.8076 165.8169 165.9206 165.9567 165.9104 165.9415 166.1104 166.3051 166.5625 166.6313 166.6096 166.8985 166.8367 166.6294 166.5413 166.4176 166.1461 165.9179 165.7625 165.7959 165.7802 165.8155 165.8876 165.8497 165.9597 166.1077 165.9387 164.3314 162.7567 163.999 165.5345 166.0574 165.8575 165.6669 165.5899 165.6502 165.706 165.8386
196.9142 196.9827 197.0202 196.8049 196.4304 196.5661 197.2725 195.0898 190.2898 188.2109 187.8206 187.8168 187.8404 187.9036 187.9673 188.1557 188.3789 188.3188 188.4232 188.3708 188.0651 188.8335 192.1254 196.16 197.739 198.7429 200.3023 201.8239 202.8056 203.4664 203.8477 203.987 203.8726 203.5149 202.8442 202.2708 201.6132 201.0348 200.3638 199.9782 199.983 199.2568 199.2422 198.9514 198.7564 198.1884 197.5651 196.922 196.1846 195.1113 194.7146 194.1819 194.5977 195.0997 195.5102 195.7134 195.8704 195.9547 193.3074 190.5129 188.5268 186.7411 184.1039 183.832 183.455 181.3097 181.6394 179.7525 176.9421 174.0889 171.6037 168.9431 166.6173 166.3126 166.1775 166.1768 166.1055 166.1676 166.9855 168.1509 165.3129 165.1698 165.1256 162.1595 161.88 161.88 161.88 161.88 161.88 161.88 161.88 161.88 161.88 163.349 165.8916 165.8979 165.7223 165.663 165.3439 165.02 164.888 164.9017 164.9181 164.956 164.9465 164.9653 164.8648 164.8496 164.9167 165.0323 164.9683 164.8657 164.627 164.4701 164.4194 164.4701 164.6504 164.7462 164.8484 164.8472 164.8466 164.7691 164.6504 164.7335 164.931 165.2419 165.6755 165.9955 166.1604 166.2249 166.2335 166.0319 165.8283 165.8507 166.0378 166.2746 166.4017 166.3925 166.2127 165.924 165.622 165.2596 165.4004 165.5362 165.5665 165.7058 165.8736 165.8763 165.7879 165.784 165.7219 165.7566 165.7344 165.6606 165.7129 165.6779 165.6288 165.5029 165.5132 165.4692 165.3957 165.4987 165.5414 165.6906 165.5093 165.4488 165.4281 165.4242 165.4897 165.5806 165.5388 165.607 165.565 165.6482 165.5677 165.4831 165.5369 165.5539 165.4554 165.4396 165.3876 165.3431 165.33 165.3215 165.4265 165.4491 165.4406 165.4415 165.503 165.5043 165.5348 165.5143 165.4704 165.436 165.4592 165.5431 165.5763 165.5835 165.5733 165.4177 165.5438 165.5148 165.6125 165.5859 165.5105 165.4199 165.2652 165.4516 165.4044 165.3453 165.127 164.9683 165.0954 165.2028 165.0512 165.0641 165.0329 165.0378 165.0775 165.1112 165.1136 165.1998 165.063 165.2969 165.4861 165.3971 165.3558 165.2764 165.1809 165.1647 165.2818 165.5527 165.9111 166.9787 167.373 166.8037 165.9844 165.8153 165.6506 165.4535 165.3019 165.2854 165.2199 165.1728 164.9702 164.8902 164.7621 164.6072 164.5338 164.5193 164.4559 164.4557 164.4053 164.367 164.5376 164.4789 164.4856 164.5457 164.6709 164.7729 164.9196 164.9502 164.991 165.0278 165.0918 165.2258 165.2419 165.2603 165.2945 165.298 165.2869 165.277 165.2656 165.3452 165.2917 165.3551 165.3891 165.3616 165.3424 165.3572 165.3862 165.3754 165.3853 165.42 165.4651 165.4621 165.4753 165.4836 165.5021 165.5255 165.5175 165.538 165.623 165.6602 165.7769 165.7423 165.7426 165.7623 165.7938 165.8871 166.0082 166.1369 166.2612 166.2566 166.0929 165.8795 165.8503 165.9989 166.2337 166.4979 166.5797 166.8286 166.5029 166.4758 166.4229 166.2941 166.1683 165.8942 165.7467 165.8426 165.8553 165.8865 165.8006 165.7158 165.8742 165.8967 165.8355 165.8431 163.9595 162.6998 164.6573 165.8887 165.6978 165.3298 165.5331 165.6999 165.9014 166.3006
195.7475 195.7271 195.7433 195.6256 195.4902 195.7951 196.5197 197.1491 195.8121 191.6219 188.5273 187.7232 188.9312 190.6853 191.045 190.939 190.9532 190.8732 190.7178 190.7236 190.6389 193.5507 196.841 197.2356 197.9319 199.9451 201.7552 202.7955 203.6985 204.1015 204.1405 203.8902 203.5454 203.0248 202.3819 201.7488 201.1971 200.5444 200.2092 200.1601 199.8117 199.4751 198.7076 198.1784 198.0218 197.5978 197.133 196.1473 195.4977 194.7961 194.0982 194.1097 194.4561 194.3966 194.4529 194.7988 195.1548 193.9782 189.9297 187.9941 187.2904 184.2503 184.1105 183.7742 182.8166 180.3448 180.3944 178.5076 175.8402 173.2251 170.4834 167.4624 166.131 166.1873 166.0905 166.0574 166.1548 166.1189 167.4849 167.6233 165.0016 165.2215 165.3151 162.1417 161.88 161.88 161.88 161.88 161.88 161.88 161.88 161.88 161.88 163.7208 166.1031 166.0161 165.6065 165.4023 165.1075 164.911 164.9743 164.9555 164.9903 165.014 165.0376 165.0325 164.9075 164.8375 164.8602 164.9444 164.9584 164.6899 164.5348 164.476 164.5591 164.6714 164.7544 164.7832 164.782 164.8497 164.8179 164.8133 164.8029 165.0815 165.4377 165.7534 166.078 166.2704 166.3124 166.2696 166.2862 166.0059 165.7903 165.8635 166.0771 166.3396 166.3968 166.3086 166.1064 165.9486 165.6638 165.3682 165.3186 165.469 165.5155 165.6269 165.7352 165.7346 165.7453 165.7136 165.7093 165.7023 165.7312 165.7212 165.6028 165.5399 165.461 165.4052 165.3797 165.3017 165.3112 165.4013 165.4518 165.5339 165.3916 165.3635 165.4032 165.3504 165.4209 165.5432 165.4616 165.5296 165.4495 165.5865 165.4507 165.3403 165.325 165.4003 165.283 165.32 165.3012 165.2833 165.2572 165.3134 165.3655 165.4166 165.4638 165.4922 165.5184 165.5207 165.5499 165.3822 165.4129 165.3112 165.4271 165.4944 165.5516 165.4872 165.3995 165.2446 165.3142 165.292 165.2789 165.2434 165.2196 165.182 165.1234 165.1381 165.082 165.0053 164.863 164.9393 164.9868 164.9517 164.9061 164.9255 164.9645 165.0118 164.9813 165.0299 165.0866 165.193 165.2801 165.379 165.4737 165.475 165.3525 165.2799 165.1948 165.2031 165.2693 165.4371 165.6355 166.8862 167.4606 166.9896 166.0555 165.7417 165.4796 165.1627 164.9247 164.7592 164.6761 164.5108 164.4133 164.3509 164.3095 164.3103 164.3144 164.2948 164.3091 164.3327 164.393 164.3077 164.6376 164.5685 164.6479 164.6681 164.8176 164.8384 165.0111 165.139 165.1221 165.0854 165.116 165.3078 165.3215 165.3894 165.3859 165.4266 165.4002 165.3696 165.3007 165.2854 165.325 165.3547 165.3446 165.3553 165.343 165.3413 165.3916 165.4072 165.4202 165.4008 165.4518 165.4634 165.4859 165.4902 165.5187 165.5385 165.5802 165.6494 165.6403 165.6705 165.7676 165.7642 165.7357 165.7773 165.8986 166.0657 166.1442 166.1646 166.2373 166.218 166.1944 166.113 165.9245 165.7782 165.807 165.9715 166.1296 166.322 166.2566 166.2297 166.2749 166.1908 166.0963 165.888 165.7906 165.834 165.7981 165.7709 165.7272 165.6764 165.8553 165.7856 165.726 165.7269 165.7725 163.6911 162.902 165.12 165.511 165.3167 165.591 165.7626 166.0935 166.3023
194.9036 194.8133 194.7709 194.825 194.91 195.1829 195.7598 196.3649 197.0244 196.9717 193.529 191.2898 193.7196 197.3088 197.7954 197.5281 197.3709 197.1176 196.8822 197.2856 197.5951 197.4055 197.223 197.7564 199.0692 200.6808 201.8544 202.4771 202.9945 203.1321 203.0574 202.8909 202.4724 201.9944 201.4957 201.0909 200.7651 200.5607 200.4433 200.4745 199.7706 199.2016 198.3249 197.105 196.5764 196.1597 196.0552 195.4397 194.917 194.1981 193.4884 193.351 193.6272 193.7271 193.6579 193.7134 192.8681 190.14 188.8619 187.8233 185.7537 184.5204 184.2612 183.3075 180.6004 179.9867 178.4392 176.283 174.2356 171.8046 168.9579 166.2941 166.258 166.128 166.0674 166.0284 166.1089 166.1049 167.9904 166.987 164.6606 165.2544 164.7489 162.0265 161.87 161.8798 161.88 161.88 161.88 161.88 161.88 161.88 161.88 163.5928 166.1084 165.8585 165.5251 165.2328 165.0347 165.0207 165.0211 164.9682 164.9591 164.9518 164.9502 164.912 164.8793 164.8388 164.7669 164.769 164.7102 164.5244 164.462 164.5361 164.6284 164.7364 164.7481 164.7652 164.8784 164.822 164.8416 164.8936 165.1432 165.4831 165.8774 166.1248 166.3115 166.3166 166.2884 166.2295 166.1786 165.9746 165.7632 165.8379 166.0982 166.2693 166.3089 166.1594 165.9799 165.8719 165.7385 165.5372 165.4295 165.4798 165.5067 165.5752 165.6353 165.666 165.6825 165.6889 165.6818 165.66 165.6825 165.6744 165.6214 165.4526 165.3458 165.3375 165.297 165.2421 165.2067 165.331 165.3764 165.4018 165.2656 165.2637 165.2748 165.2098 165.2956 165.3329 165.3187 165.4185 165.3547 165.3872 165.2694 165.1818 165.1982 165.2583 165.2125 165.1916 165.2073 165.2068 165.2611 165.2541 165.4529 165.39 165.3558 165.4098 165.3595 165.2902 165.3277 165.2382 165.1965 165.1026 165.1917 165.1932 165.0964 165.0863 164.9698 164.8762 164.8539 164.8509 164.9344 164.9746 164.9766 164.9264 164.8103 164.8967 164.8216 164.8808 164.9323 165.0026 164.9537 164.9304 164.9643 164.9935 165.061 165.0826 165.0858 165.1108 165.1833 165.2454 165.3591 165.3971 165.4112 165.3806 165.2408 165.1518 165.1793 165.2176 165.3169 165.4171 165.6051 166.8896 167.5916 167.1596 166.1326 165.6155 165.3083 165.0678 164.8818 164.6959 164.6696 164.5537 164.4131 164.3947 164.33 164.3722 164.3664 164.4128 164.3477 164.5574 164.5703 164.7342 164.9541 164.8807 164.944 165.365 165.5552 165.7459 165.6077 165.4794 165.4034 165.3111 165.3154 165.6065 165.5746 165.5486 165.58 165.5272 165.5332 165.5298 165.4818 165.517 165.4585 165.4464 165.4583 165.4574 165.4748 165.642 165.5438 165.5858 165.634 165.6725 165.66 165.7336 165.7286 165.7956 165.8194 165.8471 165.9071 166.01 165.9582 165.988 165.9301 165.8341 165.7695 165.8075 165.892 165.9483 165.9894 166.0589 166.0977 166.0746 166.2352 166.3325 166.1985 166.0186 165.9251 165.9022 166.0268 166.0845 166.0978 166.1554 166.1222 166.0829 165.9861 165.8922 165.7513 165.8205 165.7458 165.7686 165.6823 165.6986 165.9844 165.7236 165.692 165.6258 165.634 165.4374 163.9266 162.4472 165.1559 165.1116 165.301 165.5491 165.859 166.0943
194.0998 194.1913 194.2717 194.4192 194.6255 194.874 195.0802 195.36 195.707 196.1064 197.0808 197.8464 197.8229 197.4712 197.371 197.0907 196.9274 197.0399 197.1651 197.2495 197.5079 197.7199 197.7669 198.299 199.7476 200.7675 201.1564 201.2519 201.2991 201.3853 201.5242 201.495 201.256 200.7828 200.477 200.4303 200.3697 200.2921 200.3301 200.4036 199.7843 199.1238 198.2925 197.0446 196.001 195.3328 195.4985 194.6206 194.1767 193.5607 193.3519 193.1385 192.9781 192.8772 192.7245 191.8825 189.7339 189.1155 188.4875 186.7461 184.564 184.5079 184.1212 181.4476 179.7391 177.5663 175.4532 173.9894 172.2585 170.1114 167.1925 166.4654 166.2926 166.1402 166.0578 166.038 165.9887 166.0233 168.3928 166.379 164.6326 165.1739 165.2909 162.1872 161.87 161.87 161.87 161.87 161.8796 161.88 161.88 161.88 161.88 163.8933 165.9683 165.981 165.3773 165.3384 165.1142 164.8825 164.7676 164.8223 164.9621 165.0448 165.0183 164.9639 164.9135 164.9142 164.7936 164.7533 164.601 164.5111 164.4597 164.5162 164.6676 164.6399 164.6951 164.7505 164.7716 164.8113 164.8764 165.0751 165.4422 165.759 166.0338 166.2396 166.3041 166.3014 166.2156 166.191 166.1072 165.9662 165.747 165.7705 165.9828 166.1692 166.0912 165.9637 165.7897 165.6975 165.7164 165.4758 165.3193 165.3446 165.4751 165.5667 165.5009 165.4627 165.4994 165.5678 165.579 165.5455 165.5049 165.4921 165.3461 165.3332 165.2761 165.1981 165.1939 165.1691 165.1799 165.2502 165.3206 165.306 165.1555 165.1843 165.2099 165.1053 165.1682 165.1928 165.2142 165.2811 165.214 165.2348 165.1031 165.0042 165.0301 165.0947 165.0456 165.0713 165.0582 165.0032 165.05 165.0112 165.1135 165.0176 165.0142 165.0478 164.9729 164.8925 164.9402 164.8402 164.8049 164.7831 164.8891 164.7815 164.7747 164.7232 164.7613 164.7478 164.7657 164.7873 164.7991 164.8095 164.8384 164.75 164.7895 164.8466 164.8873 164.9582 165.0485 165.0967 165.1097 165.1193 165.0679 165.1939 165.2213 165.2511 165.2278 165.2355 165.2604 165.3094 165.3587 165.4029 165.38 165.3073 165.1686 165.1346 165.1953 165.2949 165.4067 165.4278 165.6584 167.0266 167.7702 167.4301 166.3099 165.7423 165.419 165.1724 164.9796 164.8608 164.8986 164.7968 164.5979 164.5204 164.5755 164.5217 164.5533 164.6363 164.7447 165.0067 165.2214 165.6172 165.9237 166.1034 166.5186 167.2013 167.8995 167.7304 167.3074 166.4122 165.8647 165.7642 165.7141 165.8146 165.7697 165.7421 165.7149 165.7409 165.7957 165.8101 165.9589 166.0827 166.0645 165.8623 165.9758 165.9044 166.0216 166.2365 166.2624 166.644 166.9904 167.205 167.5122 167.2199 167.0759 166.8299 166.8401 166.742 166.8581 166.9194 167.2755 167.9062 167.0572 166.2609 165.946 165.7983 165.699 165.7065 165.7667 165.8069 165.8534 165.9277 165.9733 166.0486 166.1582 166.1535 166.0822 165.9771 166.1621 166.0703 165.9267 166.0158 166.0328 165.9668 165.8632 165.7754 165.7676 165.7822 165.7326 165.7036 165.6322 165.7404 165.9945 165.7606 165.6088 165.5049 165.4342 163.5256 162.805 163.4307 164.8959 164.976 165.1093 165.3454 165.5819 165.7973
193.2103 193.6283 193.8886 194.0759 194.3446 194.6642 194.9628 195.1895 195.4671 195.9261 196.3422 196.5671 196.7367 196.9054 197.0082 197.0676 197.0497 197.1332 197.3728 197.5397 197.7087 197.8622 198.0871 198.6803 199.6252 200.1682 200.2477 200.0889 199.9381 199.9976 200.1401 200.2038 200.1269 200.0649 199.8818 199.8516 199.8327 199.8594 200.219 200.2647 199.4118 198.7218 197.9571 197.1105 196.4038 195.7414 195.1785 193.7836 193.4371 193.519 193.4377 192.9007 192.1642 192.1105 191.3844 189.5963 188.4976 188.1349 186.9731 185.2187 184.8815 184.5847 183.4401 180.1204 179.2765 175.9308 173.2068 171.2968 169.7785 168.1291 166.6882 166.5428 166.3295 166.1577 166.0683 166.0305 165.9807 166 168.4451 165.6733 164.6938 165.2213 165.5628 162.416 161.87 161.87 161.87 161.87 161.87 161.87 161.87 161.87 161.87 165.7677 165.9205 165.8163 165.572 165.1801 164.8814 164.7425 164.9259 165.009 165.0454 165.0567 165.0251 165.0089 164.8821 164.8643 164.686 164.5447 164.458 164.4409 164.4374 164.507 164.6145 164.6855 164.6892 164.7081 164.7567 164.8223 165.0318 165.3802 165.7603 166.0156 166.202 166.2408 166.2913 166.22 166.1308 166.0677 166.0188 165.9328 165.7789 165.779 165.9293 166.0364 165.9142 165.8089 165.6673 165.5576 165.585 165.5429 165.336 165.3284 165.4691 165.4322 165.3975 165.284 165.3614 165.3992 165.3902 165.349 165.2693 165.2485 165.22 165.1791 165.0993 165.0941 165.0832 165.0757 165.0833 165.1025 165.1258 165.1728 165.0108 165.0204 165.0327 165.0079 165.0122 165.0428 165.0634 165.0948 165.0347 165.0484 164.9471 164.8791 164.9391 164.9605 164.9078 164.873 164.9015 164.8593 164.7988 164.7896 164.796 164.7783 164.7298 164.721 164.6333 164.6087 164.6545 164.6662 164.6318 164.603 164.671 164.6585 164.6153 164.6218 164.598 164.6304 164.6838 164.6803 164.8284 164.8654 164.9508 164.8715 164.9151 165.0392 165.1527 165.2996 165.2847 165.202 165.2309 165.1692 165.2411 165.3523 165.3192 165.3731 165.3102 165.282 165.2973 165.3497 165.4261 165.4984 165.4303 165.3927 165.3305 165.388 165.4463 165.5058 165.657 165.7902 166.0287 166.8831 167.9114 167.7271 166.6017 166.11 165.7042 165.4317 165.2553 165.2103 165.1863 165.2177 164.9864 164.9694 165.2977 165.4315 165.5175 165.8598 166.3656 166.7022 167.1541 167.4227 167.825 168.1142 168.2457 168.4276 168.5697 168.4877 168.3238 168.2796 168.084 168.3038 168.8097 167.8152 167.0364 166.6638 166.9584 167.6241 168.4015 169.408 169.7906 169.9241 169.8011 169.8242 170.0815 170.1337 170.1847 170.1052 170.1876 170.1868 170.2725 170.2575 170.4553 170.422 169.8171 169.6515 169.5014 169.2776 169.2357 169.3236 169.4103 169.3477 168.6741 167.6965 166.912 166.7181 166.4834 166.1703 166.0394 165.8987 165.8729 165.8858 165.8791 165.8789 165.9171 166.005 166.2002 166.1001 166.3334 166.1787 165.9198 165.9507 165.9604 165.9219 165.7471 165.7101 165.7591 165.7864 165.7659 165.6342 165.6987 165.7884 165.9124 165.623 165.3721 165.307 165.3267 164.5291 162.9879 164.2341 164.4415 165.1669 165.0241 165.0318 165.1657 165.3534
192.6875 193.1378 193.4664 193.7702 194.1288 194.5286 194.8602 195.1253 195.4271 195.7764 196.0376 196.185 196.3269 196.5119 196.7281 196.8576 196.988 197.1833 197.3997 197.6104 197.8612 198.1488 198.4738 198.8852 199.3123 199.5325 199.5254 199.2959 198.9877 198.8753 198.9386 198.9698 199.1035 199.3283 199.3828 199.2025 198.8749 199.031 199.3396 199.1493 198.8486 198.2892 197.3549 196.8185 196.3055 195.6433 194.8848 193.8454 193.3573 193.4617 193.2837 192.3403 191.6248 191.2772 190.0126 188.6306 188.0261 186.916 185.8656 184.2042 184.9614 184.6517 181.6714 179.1552 178.006 174.6268 172.803 170.7386 168.7424 166.9817 166.7628 166.5261 166.3975 166.2328 166.0828 165.9907 165.9879 166.2082 168.5073 165.1985 164.7874 165.1718 165.7349 161.9266 161.87 161.87 161.87 161.87 161.87 161.87 161.87 161.87 161.9536 165.4912 165.8277 165.8932 164.9164 164.983 165.0389 165.0701 165.0676 165.0378 164.9677 164.932 164.9198 164.888 164.8695 164.741 164.5532 164.4109 164.4143 164.4057 164.4211 164.462 164.5263 164.5887 164.7045 164.7908 164.8519 165.0424 165.3203 165.7154 165.9418 166.1555 166.1884 166.208 166.1687 165.9971 165.925 165.8493 165.8786 165.8358 165.8146 165.7349 165.8148 165.8103 165.8146 165.6867 165.5137 165.4348 165.4018 165.4638 165.3762 165.3269 165.3227 165.2446 165.1448 165.1477 165.2053 165.2286 165.1844 165.0739 165.0432 165.0319 165.0466 165.0353 165.0019 164.9602 164.9637 164.9208 164.9782 164.9419 164.9692 165.0214 164.8714 164.8983 164.9118 164.8564 164.9229 164.9483 164.903 164.9182 164.8541 164.9115 164.7897 164.7179 164.7523 164.7845 164.7324 164.7582 164.7459 164.6995 164.6584 164.5761 164.6169 164.5821 164.5277 164.5979 164.5697 164.5619 164.6507 164.636 164.6175 164.6826 164.7403 164.691 164.7445 164.8242 164.8046 164.8725 165.0269 165.0621 165.2307 165.3264 165.2701 165.1794 165.131 165.3246 165.2851 165.3495 165.3072 165.2839 165.3042 165.2779 165.2783 165.3362 165.3187 165.356 165.3428 165.4355 165.4243 165.5256 165.5762 165.709 165.6969 165.7317 165.8581 165.9912 165.8645 165.8928 166.2083 166.3868 166.5918 167.0063 168.1102 168.025 166.8624 166.5394 166.2538 166.1903 166.2484 166.4262 166.3216 166.4383 166.6344 166.9681 167.2206 167.5737 167.8419 168.3411 168.5825 168.7163 168.5907 168.6725 168.5351 168.4505 168.4364 168.6361 168.8185 168.7858 168.5585 168.6225 169.0791 169.3136 169.1314 169.2444 169.4509 169.495 169.5907 169.7643 170.0166 170.1633 170.7688 171.7151 172.3191 173.3671 173.9707 174.4832 175.1373 176.3402 177.1386 176.456 176.671 177.9913 178.3913 177.7911 177.5678 176.2666 174.4363 173.2101 171.7325 171.1294 170.2211 170.9955 170.8356 169.9872 169.5829 169.5986 169.5042 168.6089 167.099 166.7275 166.5436 166.2649 166.0817 165.9141 165.8707 165.9086 165.9516 166.2255 166.2428 166.1311 165.9451 165.9073 165.9121 165.8753 165.7208 165.7128 165.755 165.8439 165.7469 165.6396 165.6874 165.8392 165.8077 165.4572 165.2918 165.3793 165.3108 165.5354 163.1817 163.9733 164.48 165.1205 165.032 165.1316 165.1214 165.2632
192.7608 193.0826 193.3209 193.6295 194.0663 194.4656 194.7921 195.0825 195.3834 195.6992 195.935 196.0817 196.1471 196.1771 196.3525 196.6634 196.9126 197.0879 197.317 197.6189 197.9868 198.3498 198.6613 198.8694 198.9193 198.8597 198.7166 198.4425 198.0519 197.8482 197.8085 197.9434 198.2204 198.5455 198.7813 198.849 198.5454 198.4934 198.1404 197.8887 197.1512 196.4625 195.8055 195.334 194.7749 194.137 193.3874 192.7701 192.1436 191.7845 191.5513 191.3339 191.136 190.6838 189.5889 188.6474 187.6654 186.7238 185.4117 185.227 185.069 184.4452 179.6549 178.7113 176.1596 172.5945 171.0384 169.4593 167.7267 167.2194 166.8841 166.6626 166.3552 166.2627 166.2 165.9852 165.9968 166.3596 168.177 164.727 164.4715 165.3889 164.5842 161.8937 161.87 161.87 161.87 161.87 161.87 161.87 161.87 161.87 162.0477 165.1402 165.3266 165.1493 164.9394 165.062 165.1323 165.2036 165.2554 165.2017 165.0416 164.9611 164.8803 164.8309 164.7734 164.6476 164.3724 164.3372 164.343 164.3407 164.3455 164.4146 164.4386 164.5598 164.7155 164.8922 165.0924 165.3131 165.594 165.8729 166.0495 166.1148 166.1008 166.0721 165.9115 165.6946 165.615 165.6017 165.7031 165.7605 165.7281 165.7446 165.6969 165.685 165.6451 165.4886 165.3616 165.218 165.2226 165.2803 165.2422 165.2379 165.2145 165.0643 165.0336 165.0502 165.0805 165.0817 164.9686 164.9412 164.8996 164.9213 164.9202 164.9099 164.8836 164.8465 164.8189 164.7767 164.8289 164.8385 164.82 164.9148 164.7924 164.8051 164.8011 164.7344 164.7882 164.7587 164.7532 164.7643 164.7415 164.7433 164.6501 164.6122 164.6722 164.6985 164.6557 164.6725 164.6565 164.6149 164.5842 164.5458 164.5704 164.5767 164.6341 164.7091 164.7272 164.766 164.8297 164.8321 164.817 164.8811 165.0632 165.1294 165.1353 165.2096 165.259 165.2623 165.3296 165.3813 165.4284 165.427 165.3649 165.2566 165.2542 165.2919 165.2678 165.3389 165.3174 165.2746 165.3024 165.3597 165.3565 165.5176 165.5603 165.6273 165.6744 165.7607 165.8464 165.8921 165.9098 165.8413 165.9403 165.9751 166.1282 166.2057 166.0111 166.3699 166.4771 167.0313 167.2632 167.7443 168.402 168.3313 167.8444 167.4464 167.5112 167.7805 168.2561 168.3049 168.5024 168.6843 168.7724 168.6375 168.5936 168.6912 168.7365 168.7462 168.9091 168.9287 168.8174 168.8735 168.8062 168.7951 168.922 168.9844 169.1022 169.0735 169.1082 169.2971 169.3953 169.4528 169.4886 169.7266 169.891 170.6269 171.876 173.549 175.1535 176.5111 177.9727 178.7826 179.1549 180.4592 181.0501 181.9037 182.141 182.4351 182.4466 181.7884 181.5693 181.7359 181.6804 181.5997 181.0502 180.209 178.5471 177.1794 176.0792 174.9623 172.1218 174.4816 176.5097 176.2554 176.5078 174.8311 172.2749 170.1176 169.3032 169.3769 168.987 167.5279 166.9993 166.5895 166.1176 165.9149 165.9416 166.1183 166.2458 166.2154 166.0173 165.8807 165.8727 165.8675 165.7368 165.6917 165.7307 165.7439 165.654 165.6484 165.7032 165.7762 165.5975 165.3122 165.218 165.3838 165.3229 165.4314 163.3402 163.0639 164.6302 165.1926 165.2473 165.1462 165.2369 165.2171
193.0371 193.0385 193.1909 193.6266 194.0352 194.3521 194.7147 195.0502 195.2806 195.5142 195.6998 195.8608 195.9424 195.9099 195.8938 196.0914 196.3335 196.6393 197.0715 197.484 197.9315 198.3246 198.5098 198.4988 198.3946 198.1838 197.8883 197.539 197.2281 196.9333 196.8004 197.1112 197.5924 197.9377 198.1257 198.1275 198.256 197.9921 197.9156 197.4753 196.8335 196.3278 195.646 195.1275 194.5756 193.9436 193.3677 192.7301 192.1501 191.5794 191.1817 190.9121 190.54 190.35 189.3156 188.5901 187.8902 186.5595 184.8483 185.4062 185.1568 182.9887 178.8755 178.5383 174.4879 170.8452 169.2755 168.5121 167.5852 167.2777 166.7905 166.6298 166.5093 166.2662 166.0805 165.9587 165.8607 166.946 167.7248 164.5696 164.5807 165.3282 164.2294 161.87 161.87 161.87 161.87 161.87 161.87 161.87 161.87 161.87 162.6676 166.0796 165.8995 165.4637 165.1236 164.9896 165.0331 165.1931 165.1552 165.1404 165.06 164.9079 164.8489 164.845 164.7486 164.5054 164.2522 164.2553 164.2737 164.3182 164.3331 164.3632 164.4546 164.5983 164.8315 165.1037 165.4085 165.6448 165.7902 165.9391 165.9894 165.992 166.0199 165.8876 165.6484 165.4986 165.4624 165.48 165.6624 165.7138 165.6947 165.7144 165.6795 165.654 165.5657 165.3863 165.2316 165.1151 165.1235 165.1464 165.169 165.1679 165.1012 164.9892 164.9785 165.0385 165.026 164.8761 164.8458 164.8015 164.8393 164.8027 164.7937 164.8264 164.8313 164.7617 164.7101 164.7429 164.7197 164.7096 164.73 164.7929 164.6927 164.6742 164.6803 164.6247 164.6835 164.6617 164.6538 164.6488 164.6418 164.6633 164.5926 164.6371 164.6599 164.679 164.7068 164.7644 164.7993 164.7517 164.6817 164.7509 164.7991 164.8479 164.9445 165.0506 165.106 165.1647 165.1859 165.1956 165.1418 165.2528 165.3845 165.3828 165.4031 165.3786 165.357 165.3756 165.3979 165.4196 165.4896 165.5174 165.4412 165.3018 165.351 165.3834 165.3978 165.5001 165.5303 165.5098 165.5393 165.589 165.7133 165.861 166.0603 166.0801 166.1179 166.1971 166.2218 166.1872 166.0749 165.9987 165.994 166.1794 166.3752 166.4635 166.6778 166.8873 166.9431 167.3641 167.5875 167.7901 168.6791 168.6985 168.5651 168.8362 168.8957 168.8309 168.8767 168.8967 168.7601 168.7061 168.7045 168.7432 168.8478 168.8703 168.8476 168.824 168.9141 169.0729 169.1344 169.1495 169.3645 169.7366 169.9141 169.8391 169.6552 169.5928 169.8527 170.1453 170.4594 171.2658 172.8696 173.5601 174.5132 176.0108 177.9026 179.9859 181.3282 182.27 182.6717 183.145 183.51 184.1617 184.6011 185.2992 185.8036 186.0725 185.7444 184.9994 184.7429 184.6241 184.6072 184.5381 183.9411 182.4821 180.8995 180.1433 178.7966 176.1423 173.9595 176.6918 178.8046 180.3259 180.9298 180.2906 179.4595 177.3732 175.35 173.1496 170.4099 169.2266 169.1907 168.3339 166.9864 166.4985 166.1914 166.1116 166.2722 166.1181 166.0247 166.0406 165.9738 165.971 165.8402 165.7609 165.8146 165.679 165.624 165.6772 165.667 165.7116 165.5332 165.3219 165.3061 165.3628 165.342 165.5745 164.3506 164.0894 163.2204 165.1227 165.4981 165.1913 165.2369 165.1784
192.7924 192.6309 192.7374 193.0947 193.4394 193.9038 194.3913 194.8032 195.0832 195.1984 195.2684 195.3435 195.4304 195.4961 195.4839 195.475 195.6137 195.9091 196.2704 196.6652 197.1401 197.5378 197.7107 197.7023 197.6031 197.3812 197.0443 196.7042 196.2699 195.7692 195.5453 195.9722 196.8886 197.5589 197.7796 197.8076 197.9007 197.8958 197.4933 197.1972 196.4935 196.502 196.0451 195.0413 194.1676 193.7448 193.1093 192.1176 192.0301 191.9026 191.4202 190.4235 190.1986 189.9885 189.3373 188.7541 188.0326 186.5185 185.5485 185.5163 185.1694 181.7738 178.8668 178.299 174.6202 172.2576 170.2971 168.1119 167.2318 167.0877 166.7308 166.4585 166.2238 166.2 165.9782 165.9016 165.8705 167.4769 167.0118 164.4858 164.6075 165.1095 164.8012 161.87 161.87 161.87 161.87 161.87 161.87 161.87 161.87 161.87 163.1291 165.8814 165.5375 165.1866 164.89 164.9504 165.0301 165.0666 165.07 165.0727 164.963 164.9825 164.9194 164.9184 164.7249 164.4481 164.2374 164.2379 164.2723 164.2681 164.28 164.3012 164.3933 164.645 165.0198 165.5915 165.7839 165.8653 165.86 165.8651 165.8793 165.8432 165.818 165.7954 165.5733 165.4252 165.3663 165.4397 165.6022 165.6669 165.6136 165.6084 165.5973 165.5479 165.423 165.2447 165.0942 165.045 165.0742 165.0699 165.1263 165.1063 165.0914 165.0265 165.0081 164.9871 164.9586 164.8806 164.8353 164.7964 164.7668 164.7859 164.8035 164.8217 164.7391 164.7357 164.6752 164.6604 164.6734 164.652 164.65 164.6996 164.6296 164.6071 164.6058 164.617 164.5847 164.5943 164.6396 164.6691 164.6738 164.6784 164.703 164.6929 164.8096 164.8443 164.8829 164.949 164.9173 164.8927 164.8684 164.9736 165.0937 165.1274 165.198 165.3291 165.2666 165.3272 165.2859 165.3117 165.2845 165.3355 165.4615 165.4396 165.4986 165.5286 165.525 165.5624 165.5816 165.6514 165.7611 165.7837 165.7354 165.5567 165.4958 165.675 165.7567 165.8455 165.8474 165.8816 165.9587 165.9707 166.1017 166.2889 166.3873 166.3651 166.309 166.2894 166.1892 166.1367 166.0745 166.0632 166.0589 166.3987 166.59 166.8877 167.0256 167.1671 167.4289 167.6538 167.918 168.1143 168.9837 169.0804 168.8621 169.0051 168.9004 168.9298 168.9506 168.9879 168.8347 168.7169 168.7915 168.7881 168.8332 168.7999 168.8668 168.9926 169.1741 169.3811 169.4906 169.4471 170.3172 170.6095 171.6689 171.8525 171.8371 172.3211 173.6755 173.4941 173.4683 175.6851 177.8152 179.0584 178.9282 180.2125 181.8967 183.4028 184.9747 185.7975 186.1622 186.5288 186.7158 187.5506 188.3277 189.098 189.3483 189.5712 189.3288 188.7187 188.4624 188.0094 187.5551 186.8998 185.3522 183.7566 182.331 181.4893 179.5988 176.7516 178.1349 179.7259 180.9511 182.1386 182.0245 181.7278 181.1071 180.086 179.0631 177.9456 176.3023 174.4901 172.1636 169.3721 169.048 168.2416 167.3467 166.7884 166.3359 166.1616 166.1387 166.1322 166.1201 166.0677 165.9373 165.8214 165.8877 165.6996 165.6287 165.5946 165.7002 165.7092 165.4679 165.4294 165.4079 165.3498 165.3273 165.279 165.3858 164.9477 164.7226 163.1802 165.1971 165.3449 165.2573 165.4435
192.3826 192.1908 192.1826 192.4208 192.8067 193.2816 193.7922 194.2365 194.5081 194.5923 194.5941 194.7268 194.9785 195.1388 195.1355 195.1807 195.2477 195.3199 195.3764 195.4113 195.6838 196.096 196.3975 196.5258 196.5356 196.3621 196.1485 195.9066 195.5069 194.9755 194.7351 195.0883 195.9088 196.9242 197.5185 197.4811 197.5628 197.3595 197.2186 197.2395 196.4721 196.3829 196.1918 195.145 193.8287 193.2818 192.626 192.094 192.0925 191.9193 191.0747 190.0811 189.9893 189.4767 188.8784 188.498 187.8657 186.2859 185.8813 185.6424 184.8806 180.9163 178.9847 178.1895 175.3881 172.5927 170.5233 167.9906 166.889 166.5157 166.6308 166.4146 166.1846 166.0296 165.9507 165.9055 165.8109 167.9056 166.3016 164.3453 164.7977 165.0782 163.5986 161.87 161.87 161.87 161.87 161.87 161.87 161.87 161.87 161.87 164.0964 165.6578 165.1292 164.8823 165.1122 165.1772 165.4367 165.4896 165.4332 165.1073 164.9597 165.2467 165.1377 165.0529 164.9561 164.6969 164.4395 164.339 164.4159 164.295 164.3897 164.3935 164.59 165.3055 165.8388 166.0961 166.1423 166.0488 165.9977 165.8923 165.8074 165.7988 165.7378 165.7019 165.628 165.5233 165.4187 165.4725 165.5876 165.6107 165.6148 165.5153 165.511 165.4338 165.3084 165.2685 165.197 165.1273 165.1176 165.0954 165.0872 165.1044 165.0626 165.0353 165.0175 164.9553 164.916 164.8387 164.8114 164.7752 164.7961 164.7952 164.7666 164.7533 164.7032 164.6875 164.6757 164.6367 164.6152 164.6395 164.5849 164.6613 164.5927 164.5942 164.5998 164.5559 164.65 164.6527 164.6882 164.8056 164.8115 164.8118 164.8565 164.8393 164.9681 164.9894 164.9521 165.036 165.0628 165.0123 165.0743 165.1193 165.2269 165.1789 165.2076 165.3504 165.3609 165.3317 165.4201 165.3922 165.3817 165.4561 165.5892 165.605 165.6357 165.7072 165.7942 165.8079 165.972 166.0865 166.1283 166.1319 166.0888 165.809 165.6951 165.9584 166.0432 166.0839 166.1248 166.1004 166.1046 166.0849 166.1778 166.3052 166.3698 166.2948 166.1566 166.1078 166.0878 166.0952 166.102 166.2012 166.2551 166.4719 166.7881 167.028 167.1623 167.3887 167.6806 168.1949 168.968 169.137 169.4108 169.5843 169.2478 169.1988 169.4096 169.1217 168.8771 168.8554 169.0005 168.9222 168.9427 168.9465 169.0569 169.0187 169.6125 170.6543 171.784 172.2608 173.3423 173.7298 173.6816 173.4841 173.845 175.259 175.962 177.0342 178.1484 173.7008 173.7628 178.9968 182.245 183.1253 182.2553 182.771 184.1168 186.1336 188.2194 189.1936 190.1429 190.5897 190.7385 191.2031 192.2894 192.9478 193.7331 193.849 193.4377 192.9167 192.3395 191.5341 190.1819 188.3566 186.5282 184.905 183.9427 182.9509 180.778 180.271 181.2928 182.4852 183.5614 183.1808 182.5302 182.1769 181.8692 181.2713 180.3796 179.4534 178.3835 177.3001 176.0732 174.3682 171.7264 168.7327 168.6906 167.92 166.5804 166.5543 166.3121 166.2889 166.3059 166.1017 165.9445 165.8788 165.9142 165.7219 165.7141 165.6503 165.7573 165.7144 165.553 165.4657 165.4659 165.3795 165.2204 165.2427 165.3285 165.3788 165.5698 164.9552 163.4981 165.5124 165.4418 165.513
